-0.368039 -0.360855 0.481248 0.300000 0.000000 0.600000
0.424793 0.190180 -0.320271 0.000000 0.500000 0.500000
0.069590 0.000182 -0.344616 0.000000 0.500000 0.500000
0.098160 -0.529444 -0.094495 0.300000 0.000000 0.600000
-0.335118 0.290233 0.062330 0.500000 0.000000 0.500000
-0.335118 0.190872 -0.058967 0.500000 0.000000 0.500000
-0.431136 -0.060746 0.389139 0.500000 0.000000 0.500000
0.361696 0.550790 -0.060118 0.500000 0.000000 0.500000
0.443301 0.131465 -0.520191 0.000000 0.500000 0.500000
0.424793 0.579999 0.181973 0.000000 0.500000 0.500000
0.361696 -0.372531 -0.189377 0.600000 0.000000 0.300000
0.361696 0.611184 0.320526 0.500000 0.000000 0.500000
-0.335118 -0.364639 -0.068328 0.300000 0.000000 0.600000
0.171394 0.005512 -0.000533 0.300000 0.600000 0.000000
0.446740 -0.711103 0.082186 0.000000 0.500000 0.500000
-0.310809 -0.469090 0.443457 0.000000 0.000000 1.000000
-0.335118 0.282327 0.127494 0.500000 0.000000 0.500000
-0.267325 -0.355476 -0.487270 0.600000 0.000000 0.300000
-0.431136 0.307665 -0.019663 0.500000 0.000000 0.500000
-0.354576 0.422644 0.552351 0.500000 0.500000 0.000000
0.149393 -0.711122 0.396093 0.300000 0.600000 0.000000
0.377848 0.259639 0.566181 0.000000 1.000000 0.000000
-0.453083 -0.195666 0.097402 0.500000 0.000000 0.500000
-0.022225 0.109005 0.566181 0.000000 1.000000 0.000000
-0.230546 0.442817 0.566181 0.500000 0.500000 0.000000
0.424793 0.091255 -0.124792 0.000000 0.500000 0.500000
0.304064 -0.529444 0.373995 0.300000 0.000000 0.600000
0.368483 -0.067564 0.500340 0.600000 0.300000 0.000000
-0.235468 0.058273 0.500340 0.000000 1.000000 0.000000
0.051171 -0.575543 0.500340 0.000000 0.000000 1.000000
0.154873 -0.529444 -0.193663 0.300000 0.000000 0.600000
0.107968 -0.529444 0.012029 0.300000 0.000000 0.600000
0.361696 0.611289 -0.329649 0.500000 0.000000 0.500000
-0.104082 -0.529444 0.280890 0.300000 0.000000 0.600000
-0.431136 0.596286 0.459387 0.500000 0.000000 0.500000
0.337942 0.720356 0.500340 1.000000 0.000000 0.000000
-0.440344 0.732503 -0.111660 0.500000 0.000000 0.500000
0.007274 -0.529444 0.014648 0.300000 0.000000 0.600000
-0.453083 -0.047724 0.452170 0.500000 0.000000 0.500000
0.164965 0.036073 -0.311695 0.000000 0.500000 0.500000
-0.431136 0.118387 0.093674 0.500000 0.000000 0.500000
0.313270 -0.295521 -0.470810 0.600000 0.000000 0.300000
-0.335118 0.565428 -0.188478 0.000000 0.500000 0.500000
0.210616 -0.469090 0.040078 0.000000 0.000000 1.000000
-0.335118 0.550792 0.164896 0.000000 0.500000 0.500000
-0.162223 0.214443 0.566181 0.000000 1.000000 0.000000
-0.368039 0.552220 0.269454 0.000000 0.500000 0.500000
-0.225032 -0.227301 0.557516 0.600000 0.300000 0.000000
0.207946 0.732503 0.511439 1.000000 0.000000 0.000000
-0.453083 0.320299 0.289053 0.500000 0.000000 0.500000
0.401277 -0.268232 -0.470810 0.600000 0.000000 0.300000
-0.302171 0.630999 -0.321173 0.300000 0.600000 0.000000
-0.311249 0.699583 0.365729 0.000000 1.000000 0.000000
0.380855 0.325431 0.533261 0.000000 1.000000 0.000000
0.328775 -0.390466 0.079656 0.600000 0.000000 0.300000
-0.427421 0.328104 -0.470810 0.600000 0.000000 0.300000
-0.271148 -0.529444 -0.000942 0.300000 0.000000 0.600000
0.419703 0.677636 0.437375 1.000000 0.000000 0.000000
-0.209059 -0.403669 -0.344616 0.800000 0.200000 0.500000
0.173463 -0.254683 0.566181 0.600000 0.300000 0.000000
0.446740 0.372068 0.401560 0.000000 0.500000 0.500000
0.072578 -0.529444 0.432049 0.300000 0.000000 0.600000
0.328775 0.112706 0.270119 0.500000 0.500000 0.000000
-0.178590 -0.529444 -0.418059 0.300000 0.000000 0.600000
-0.335118 0.612753 0.076840 0.000000 0.500000 0.500000
0.171504 0.521264 -0.109882 0.600000 0.000000 0.300000
0.307098 0.013742 0.192047 0.300000 0.600000 0.000000
0.174205 0.013742 -0.131204 0.300000 0.600000 0.000000
-0.453083 -0.021815 -0.274942 0.500000 0.000000 0.500000
-0.228601 0.691786 0.500340 1.000000 0.000000 0.000000
-0.453083 0.173393 -0.009262 0.500000 0.000000 0.500000
0.336128 0.699583 -0.042142 1.000000 0.000000 0.000000
-0.336365 0.630999 0.142414 0.000000 0.500000 0.500000
-0.393924 -0.425962 0.566181 0.600000 0.300000 0.000000
-0.317495 -0.518470 0.524600 0.000000 0.000000 1.000000
-0.453083 -0.657382 -0.516696 0.600000 0.000000 0.300000
0.331305 0.334716 0.383073 0.500000 0.500000 0.000000
-0.011408 0.521264 -0.086394 0.600000 0.000000 0.300000
0.286035 -0.529444 -0.404286 0.300000 0.000000 0.600000
-0.344545 0.677636 -0.123478 0.000000 1.000000 0.000000
0.446740 0.406509 -0.418292 0.000000 0.500000 0.500000
0.395665 0.226493 -0.487270 0.600000 0.000000 0.300000
0.424793 -0.334196 -0.100087 0.000000 0.500000 0.500000
0.446740 -0.162490 -0.374464 0.000000 0.500000 0.500000
0.424793 0.674376 0.268209 0.000000 0.500000 0.500000
-0.328685 -0.469090 0.155962 0.000000 0.000000 1.000000
-0.193543 -0.098027 -0.470810 0.600000 0.000000 0.300000
-0.033035 0.732503 -0.501290 0.600000 0.300000 0.000000
0.424793 -0.404370 -0.146146 0.000000 0.500000 0.500000
0.117492 -0.477320 0.311874 0.000000 0.000000 1.000000
0.296904 -0.284105 0.559927 0.600000 0.300000 0.000000
0.300480 -0.171826 0.500340 0.600000 0.300000 0.000000
-0.368039 0.313522 0.450093 0.500000 0.000000 0.500000
-0.400221 -0.586191 -0.520191 0.500000 0.000000 0.500000
-0.091770 -0.469090 0.327162 0.000000 0.000000 1.000000
0.143415 0.184034 -0.487270 0.600000 0.000000 0.300000
0.446740 0.600445 -0.446173 0.000000 0.500000 0.500000
-0.018127 0.332574 -0.487270 0.600000 0.000000 0.300000
0.457714 0.198177 0.530394 0.800000 0.200000 0.500000
0.334073 0.334716 0.158356 0.500000 0.500000 0.000000
-0.431136 0.019868 0.350764 0.500000 0.000000 0.500000
-0.130137 0.529495 0.114232 0.600000 0.000000 0.300000
0.268525 0.521264 -0.230852 0.600000 0.000000 0.300000
0.361696 0.068151 0.151306 0.500000 0.500000 0.000000
-0.453083 -0.544574 -0.518101 0.500000 0.000000 0.500000
-0.453083 -0.265938 -0.307629 0.500000 0.000000 0.500000
0.047487 0.529495 0.397537 0.600000 0.000000 0.300000
-0.453083 0.320240 0.163020 0.500000 0.000000 0.500000
-0.431136 0.670578 0.235882 0.500000 0.000000 0.500000
-0.096973 0.076672 -0.487270 0.600000 0.000000 0.300000
0.222256 -0.477320 -0.187711 0.000000 0.000000 1.000000
-0.399741 -0.408056 -0.487270 0.600000 0.000000 0.300000
0.293112 0.685064 0.445150 1.000000 0.000000 0.000000
0.103123 0.274361 -0.311695 0.000000 0.500000 0.500000
0.446740 0.449508 0.048247 0.000000 0.500000 0.500000
-0.388716 0.699583 0.432834 0.000000 1.000000 0.000000
0.204720 0.268434 0.500340 0.000000 1.000000 0.000000
-0.453083 -0.244155 -0.002412 0.500000 0.000000 0.500000
0.328732 0.266096 0.283493 0.000000 0.000000 1.000000
0.449483 -0.097378 0.543824 0.600000 0.300000 0.000000
0.361696 0.062272 0.464977 0.500000 0.500000 0.000000
-0.403260 -0.253571 0.533261 0.600000 0.300000 0.000000
0.315357 0.287760 -0.344616 0.000000 0.500000 0.500000
-0.453083 -0.435641 0.177875 0.500000 0.000000 0.500000
-0.047406 -0.191505 0.533261 0.600000 0.300000 0.000000
0.071788 0.040141 0.500340 0.000000 1.000000 0.000000
0.424793 0.371866 0.120044 0.000000 0.500000 0.500000
0.282501 0.521264 0.057264 0.600000 0.000000 0.300000
-0.187540 0.099356 0.500340 0.000000 1.000000 0.000000
-0.431136 0.060271 0.019887 0.500000 0.000000 0.500000
0.194945 -0.313810 0.566181 0.600000 0.300000 0.000000
-0.181090 0.138685 -0.344616 0.000000 0.500000 0.500000
-0.064243 -0.706082 -0.520191 0.500000 0.000000 0.500000
0.447744 0.437866 0.556194 0.500000 0.500000 0.000000
0.361696 0.046663 -0.102092 0.500000 0.500000 0.000000
-0.008785 -0.529444 0.100026 0.300000 0.000000 0.600000
0.087640 0.113592 -0.470810 0.600000 0.000000 0.300000
-0.453083 0.716845 0.389847 0.500000 0.000000 0.500000
-0.358414 0.686015 -0.520191 0.600000 0.300000 0.000000
0.036074 0.667528 -0.470810 0.600000 0.000000 0.300000
-0.265523 0.529495 0.418617 0.600000 0.000000 0.300000
-0.368039 0.083686 0.429042 0.500000 0.000000 0.500000
0.446740 0.006733 0.423458 0.000000 0.500000 0.500000
-0.301681 0.441524 0.500340 0.500000 0.500000 0.000000
0.293112 0.691516 0.063895 1.000000 0.000000 0.000000
-0.154639 -0.469090 -0.200226 0.000000 0.000000 1.000000
-0.188592 0.020226 -0.311695 0.000000 0.500000 0.500000
0.343570 0.499317 -0.341443 0.500000 0.000000 0.500000
-0.453083 -0.459599 -0.221067 0.500000 0.000000 0.500000
-0.448722 -0.584311 0.519630 0.600000 0.000000 0.300000
-0.217383 0.024383 -0.487270 0.600000 0.000000 0.300000
0.065211 -0.421722 -0.311695 0.800000 0.200000 0.500000
-0.429136 -0.529444 -0.368329 0.300000 0.000000 0.600000
0.434604 0.291834 -0.520191 0.000000 0.500000 0.500000
-0.012643 -0.291707 -0.311695 0.800000 0.200000 0.500000
0.118469 -0.529444 -0.298122 0.300000 0.000000 0.600000
0.217711 0.529495 0.212984 0.600000 0.000000 0.300000
0.049481 0.697450 0.500340 1.000000 0.000000 0.000000
-0.413089 -0.118637 0.566181 0.600000 0.300000 0.000000
-0.335118 0.604426 0.450053 0.000000 0.500000 0.500000
-0.188576 -0.012121 0.566181 0.000000 1.000000 0.000000
-0.453083 0.172856 -0.360691 0.500000 0.000000 0.500000
-0.289148 -0.529444 0.468604 0.300000 0.000000 0.600000
0.119738 -0.529444 -0.430745 0.300000 0.000000 0.600000
-0.235336 -0.529444 0.382234 0.300000 0.000000 0.600000
-0.453083 -0.580753 0.159473 0.500000 0.000000 0.500000
-0.229453 0.225251 -0.487270 0.600000 0.000000 0.300000
0.242616 -0.529444 0.078255 0.300000 0.000000 0.600000
0.361696 -0.484204 0.007622 0.600000 0.000000 0.300000
0.361696 0.556836 -0.281161 0.500000 0.000000 0.500000
0.296185 0.013742 0.083370 0.300000 0.600000 0.000000
-0.321566 0.699583 -0.466795 0.000000 1.000000 0.000000
-0.067830 0.518924 0.500340 0.500000 0.500000 0.000000
-0.034190 0.005512 0.204275 0.300000 0.600000 0.000000
0.215816 0.149351 -0.344616 0.000000 0.500000 0.500000
0.361696 0.239611 0.194321 0.500000 0.500000 0.000000
-0.272026 0.239013 -0.344616 0.000000 0.500000 0.500000
-0.453083 -0.211054 -0.177394 0.500000 0.000000 0.500000
-0.453083 0.409412 -0.024055 0.500000 0.000000 0.500000
0.361696 -0.330124 0.456613 0.600000 0.000000 0.300000
0.384898 0.038373 0.566181 0.000000 1.000000 0.000000
0.361696 0.036351 -0.251006 0.500000 0.500000 0.000000
-0.453083 0.431438 0.338357 0.500000 0.000000 0.500000
-0.261880 0.013742 0.382017 0.300000 0.600000 0.000000
0.446740 0.720820 -0.009471 0.000000 0.500000 0.500000
0.369383 0.730605 -0.520191 0.600000 0.300000 0.000000
0.125902 0.584415 -0.470810 0.600000 0.000000 0.300000
-0.195213 -0.087861 0.564675 0.600000 0.300000 0.000000
0.101723 -0.529444 0.200698 0.300000 0.000000 0.600000
-0.368039 -0.437269 0.082313 0.300000 0.000000 0.600000
0.446740 0.140990 0.098465 0.000000 0.500000 0.500000
-0.453083 0.649251 -0.493976 0.500000 0.000000 0.500000
-0.106024 0.651233 -0.470810 0.600000 0.000000 0.300000
0.320474 0.602950 0.533261 0.500000 0.500000 0.000000
0.309769 -0.535270 0.533261 0.000000 0.000000 1.000000
0.361696 -0.276169 0.255769 0.600000 0.000000 0.300000
-0.453083 -0.676320 0.327871 0.600000 0.000000 0.300000
0.081425 -0.341505 0.533261 0.600000 0.300000 0.000000
-0.368039 0.129864 0.086892 0.500000 0.000000 0.500000
0.353358 0.630999 0.201893 0.500000 0.000000 0.500000
-0.146819 -0.385464 -0.470810 0.600000 0.000000 0.300000
-0.368039 -0.273205 -0.117537 0.300000 0.000000 0.600000
0.424793 -0.424906 -0.298297 0.000000 0.500000 0.500000
-0.249704 0.576064 0.533261 0.500000 0.500000 0.000000
-0.453083 -0.266805 0.161213 0.500000 0.000000 0.500000
0.055188 0.490966 -0.470810 0.600000 0.000000 0.300000
0.446740 -0.517695 -0.128962 0.000000 0.500000 0.500000
-0.335118 0.133843 -0.324857 0.500000 0.000000 0.500000
0.093890 -0.477320 -0.065306 0.000000 0.000000 1.000000
-0.407868 -0.069875 -0.487270 0.600000 0.000000 0.300000
0.395372 0.699583 0.172655 1.000000 0.000000 0.000000
0.424793 0.047000 -0.077811 0.000000 0.500000 0.500000
0.245726 0.430414 0.533261 0.500000 0.500000 0.000000
-0.269760 0.013742 -0.290764 0.300000 0.600000 0.000000
0.446740 -0.745966 -0.319633 0.000000 0.500000 0.500000
-0.398216 -0.504980 0.501456 0.600000 0.000000 0.300000
0.395073 -0.466246 -0.470810 0.600000 0.000000 0.300000
0.396692 -0.529444 0.245929 0.300000 0.000000 0.600000
0.446740 -0.469283 0.332598 0.000000 0.500000 0.500000
0.424793 0.556903 0.310327 0.000000 0.500000 0.500000
0.178870 -0.160395 -0.311695 0.800000 0.200000 0.500000
-0.431136 -0.424125 -0.009887 0.500000 0.000000 0.500000
-0.368039 -0.220410 0.273277 0.300000 0.000000 0.600000
0.328775 -0.299331 0.096092 0.600000 0.000000 0.300000
-0.095203 0.690175 -0.520191 0.600000 0.300000 0.000000
-0.431136 -0.340188 -0.360739 0.500000 0.000000 0.500000
0.315585 0.572231 -0.487270 0.600000 0.000000 0.300000
0.125690 0.610882 0.566181 0.500000 0.500000 0.000000
0.353274 -0.247856 0.553935 0.600000 0.300000 0.000000
-0.453083 0.562518 0.116390 0.500000 0.000000 0.500000
-0.333746 -0.529444 -0.220647 0.300000 0.000000 0.600000
0.057580 -0.477320 0.237142 0.000000 0.000000 1.000000
-0.321714 0.553532 -0.311695 0.300000 0.600000 0.000000
-0.364907 -0.499267 0.195524 0.300000 0.000000 0.600000
-0.141151 -0.529444 0.066945 0.300000 0.000000 0.600000
-0.411552 0.086310 -0.487270 0.600000 0.000000 0.300000
-0.178750 -0.469090 0.254904 0.000000 0.000000 1.000000
0.407520 0.677636 0.105023 1.000000 0.000000 0.000000
0.155556 -0.529444 0.479272 0.300000 0.000000 0.600000
-0.075932 0.172809 -0.344616 0.000000 0.500000 0.500000
0.226301 0.013742 -0.092822 0.300000 0.600000 0.000000
-0.274537 -0.529444 -0.145333 0.300000 0.000000 0.600000
-0.227023 0.278298 0.555431 0.000000 1.000000 0.000000
-0.087208 -0.094756 0.533261 0.600000 0.300000 0.000000
-0.407475 0.622814 0.533261 0.600000 0.000000 0.300000
-0.306696 -0.486363 -0.344616 0.800000 0.200000 0.500000
-0.431136 -0.418312 0.415131 0.500000 0.000000 0.500000
-0.187135 -0.285974 0.500340 0.600000 0.300000 0.000000
-0.368039 0.286125 0.350230 0.500000 0.000000 0.500000
-0.453083 -0.023706 -0.084270 0.500000 0.000000 0.500000
-0.335118 0.032308 0.518086 0.500000 0.000000 0.500000
-0.335118 0.156096 0.482930 0.500000 0.000000 0.500000
-0.431136 0.473786 -0.193509 0.500000 0.000000 0.500000
-0.335118 -0.324963 -0.233070 0.300000 0.000000 0.600000
0.428931 -0.180495 -0.520191 0.000000 0.500000 0.500000
-0.029748 0.627783 0.500340 0.500000 0.500000 0.000000
-0.031889 0.129434 -0.344616 0.000000 0.500000 0.500000
0.420105 0.677636 -0.467168 1.000000 0.000000 0.000000
-0.309718 0.013742 0.037456 0.300000 0.600000 0.000000
0.361696 -0.378144 -0.252312 0.600000 0.000000 0.300000
0.006684 -0.510643 0.566181 0.600000 0.300000 0.000000
-0.453083 -0.337896 -0.510120 0.500000 0.000000 0.500000
0.361696 -0.431773 0.354126 0.600000 0.000000 0.300000
-0.318326 0.057613 -0.311695 0.000000 0.500000 0.500000
-0.048663 0.521264 0.211813 0.600000 0.000000 0.300000
0.446740 0.308709 -0.362712 0.000000 0.500000 0.500000
-0.234336 -0.522986 -0.487270 0.500000 0.500000 0.000000
0.457714 0.680381 0.504046 0.800000 0.200000 0.500000
0.446740 -0.127482 0.056976 0.000000 0.500000 0.500000
-0.304055 -0.246416 0.500340 0.600000 0.300000 0.000000
-0.077814 -0.469090 0.386822 0.000000 0.000000 1.000000
-0.088228 -0.016435 -0.328193 0.000000 0.500000 0.500000
0.424793 -0.547136 0.061585 0.000000 0.500000 0.500000
-0.178063 0.311530 0.500340 0.000000 1.000000 0.000000
0.446740 0.072975 0.078436 0.000000 0.500000 0.500000
0.361696 -0.459573 0.211982 0.600000 0.000000 0.300000
-0.239961 0.313315 0.500340 0.000000 1.000000 0.000000
0.424793 -0.302605 -0.009047 0.000000 0.500000 0.500000
-0.431136 -0.055609 0.254148 0.500000 0.000000 0.500000
0.424793 0.618129 0.384226 0.000000 0.500000 0.500000
0.163954 -0.252401 -0.344616 0.800000 0.200000 0.500000
-0.284084 -0.049161 0.565566 0.000000 1.000000 0.000000
-0.032396 -0.469090 -0.212415 0.000000 0.000000 1.000000
-0.453083 0.253542 -0.286549 0.500000 0.000000 0.500000
-0.322339 0.082905 0.555864 0.000000 1.000000 0.000000
0.424793 -0.105409 -0.176592 0.000000 0.500000 0.500000
-0.455826 0.584812 0.548275 0.500000 0.500000 0.000000
0.279437 -0.477320 -0.074701 0.000000 0.000000 1.000000
-0.205324 0.563395 -0.344616 0.300000 0.600000 0.000000
-0.219679 -0.529444 0.243231 0.300000 0.000000 0.600000
0.424793 0.273172 0.112607 0.000000 0.500000 0.500000
0.295894 0.666663 0.504763 1.000000 0.000000 0.000000
0.236570 -0.706800 -0.520191 0.500000 0.000000 0.500000
0.237371 0.013742 0.329248 0.300000 0.600000 0.000000
-0.431136 -0.226692 -0.054821 0.500000 0.000000 0.500000
-0.323516 0.618665 -0.520191 0.600000 0.300000 0.000000
0.446740 0.469066 -0.363379 0.000000 0.500000 0.500000
-0.037777 -0.561962 0.566181 0.600000 0.300000 0.000000
-0.453083 0.503018 -0.303059 0.500000 0.000000 0.500000
-0.368039 -0.407823 0.225260 0.300000 0.000000 0.600000
-0.453083 -0.471325 -0.442471 0.500000 0.000000 0.500000
0.446740 -0.638489 -0.007527 0.000000 0.500000 0.500000
-0.115397 0.005512 0.243101 0.300000 0.600000 0.000000
-0.335118 -0.274159 0.106308 0.300000 0.000000 0.600000
0.068776 -0.193442 0.533261 0.600000 0.300000 0.000000
0.328775 0.511383 0.305137 0.500000 0.000000 0.500000
-0.235379 -0.477320 -0.158989 0.000000 0.000000 1.000000
0.361696 0.551378 -0.120293 0.500000 0.000000 0.500000
-0.035900 0.254107 0.500340 0.000000 1.000000 0.000000
0.446740 -0.260437 -0.318942 0.000000 0.500000 0.500000
-0.228941 0.124424 -0.311695 0.000000 0.500000 0.500000
0.391333 -0.211738 -0.487270 0.600000 0.000000 0.300000
-0.335118 0.198026 0.013348 0.500000 0.000000 0.500000
0.446740 0.669689 -0.208322 0.000000 0.500000 0.500000
0.003571 -0.214402 -0.487270 0.600000 0.000000 0.300000
0.424793 0.433136 0.185779 0.000000 0.500000 0.500000
0.361999 0.415373 0.500340 0.500000 0.500000 0.000000
-0.453083 -0.428859 0.491019 0.500000 0.000000 0.500000
-0.431136 -0.583564 0.279641 0.500000 0.000000 0.500000
0.239792 -0.529444 0.006911 0.300000 0.000000 0.600000
0.287961 -0.045249 -0.470810 0.600000 0.000000 0.300000
0.457714 0.393110 0.508088 0.800000 0.200000 0.500000
-0.312132 0.521264 -0.005993 0.600000 0.000000 0.300000
0.424793 0.001314 -0.289654 0.000000 0.500000 0.500000
-0.088076 -0.529444 -0.332351 0.300000 0.000000 0.600000
0.361696 -0.476327 0.120685 0.600000 0.000000 0.300000
-0.211840 0.013742 0.089437 0.300000 0.600000 0.000000
-0.417891 0.447683 0.566181 0.500000 0.500000 0.000000
-0.255422 0.493596 0.553244 0.500000 0.500000 0.000000
-0.213824 -0.282805 -0.311695 0.800000 0.200000 0.500000
0.089689 -0.583366 0.396093 0.300000 0.600000 0.000000
-0.196537 -0.529444 -0.360934 0.300000 0.000000 0.600000
0.217079 0.005512 0.493990 0.300000 0.600000 0.000000
-0.453083 -0.563179 -0.053546 0.500000 0.000000 0.500000
-0.453083 -0.773675 -0.042660 0.600000 0.000000 0.300000
-0.453083 -0.464311 -0.095869 0.500000 0.000000 0.500000
-0.410543 0.677636 -0.318362 0.000000 1.000000 0.000000
0.446740 0.109439 -0.006342 0.000000 0.500000 0.500000
0.329475 0.047844 0.552347 0.000000 1.000000 0.000000
0.057483 0.521264 -0.201926 0.600000 0.000000 0.300000
0.446740 0.333661 0.350121 0.000000 0.500000 0.500000
0.183151 -0.160198 0.500340 0.600000 0.300000 0.000000
0.172631 -0.053171 0.560961 0.000000 1.000000 0.000000
-0.015808 -0.353404 -0.487270 0.600000 0.000000 0.300000
-0.431136 0.131353 -0.428415 0.500000 0.000000 0.500000
-0.014962 0.422503 0.543364 0.500000 0.500000 0.000000
0.156322 0.265052 0.533261 0.000000 1.000000 0.000000
-0.359436 0.530660 0.533261 0.000000 0.500000 0.500000
-0.165730 -0.188103 0.500340 0.600000 0.300000 0.000000
0.318225 -0.346215 0.500340 0.600000 0.300000 0.000000
-0.087244 0.407584 -0.487270 0.600000 0.000000 0.300000
0.174928 0.638200 -0.470810 0.600000 0.000000 0.300000
0.424793 -0.555735 -0.078616 0.000000 0.500000 0.500000
-0.453083 0.420817 -0.478757 0.500000 0.000000 0.500000
-0.431136 -0.047613 -0.161077 0.500000 0.000000 0.500000
-0.166983 0.383215 0.500340 0.500000 0.500000 0.000000
-0.453083 -0.636026 -0.231162 0.600000 0.000000 0.300000
0.030419 -0.529444 0.471366 0.300000 0.000000 0.600000
0.424793 0.191554 0.454882 0.000000 0.500000 0.500000
-0.335118 -0.404475 0.462981 0.300000 0.000000 0.600000
0.361696 -0.216198 -0.288363 0.600000 0.000000 0.300000
-0.067992 0.441382 0.500340 0.500000 0.500000 0.000000
0.446740 0.332550 -0.109113 0.000000 0.500000 0.500000
0.173682 0.573582 -0.311695 0.300000 0.600000 0.000000
0.205602 0.005512 -0.202128 0.300000 0.600000 0.000000
0.117896 0.726425 -0.520191 0.600000 0.300000 0.000000
-0.407158 -0.199711 -0.470810 0.600000 0.000000 0.300000
0.218017 0.529495 0.424374 0.600000 0.000000 0.300000
0.424793 0.725411 0.469053 0.000000 0.500000 0.500000
-0.431136 0.034534 0.255149 0.500000 0.000000 0.500000
0.328732 -0.213791 0.247620 0.600000 0.000000 0.300000
-0.040322 -0.469090 0.176625 0.000000 0.000000 1.000000
0.060497 0.005512 0.417588 0.300000 0.600000 0.000000
0.446740 -0.241995 0.433907 0.000000 0.500000 0.500000
0.361696 0.010269 0.377545 0.500000 0.500000 0.000000
-0.247952 -0.042238 -0.487270 0.600000 0.000000 0.300000
0.168545 0.151489 0.500340 0.000000 1.000000 0.000000
-0.360064 -0.016435 -0.243091 0.500000 0.000000 0.500000
0.260555 0.113155 0.500340 0.000000 1.000000 0.000000
-0.013339 -0.609790 0.396093 0.300000 0.600000 0.000000
0.092350 -0.295239 -0.344616 0.800000 0.200000 0.500000
-0.150211 0.629763 -0.344616 0.300000 0.600000 0.000000
0.400787 0.699583 -0.086448 1.000000 0.000000 0.000000
-0.212529 0.622535 -0.470810 0.600000 0.000000 0.300000
-0.092372 0.666663 0.526230 1.000000 0.000000 0.000000
0.106430 -0.429323 0.500340 0.600000 0.300000 0.000000
0.268571 0.387617 -0.487270 0.600000 0.000000 0.300000
-0.185271 -0.721677 0.396093 0.300000 0.600000 0.000000
-0.431136 0.649837 -0.046682 0.500000 0.000000 0.500000
0.394233 0.677636 0.372234 1.000000 0.000000 0.000000
0.295175 0.521264 -0.092244 0.600000 0.000000 0.300000
0.354963 -0.411535 0.558780 0.600000 0.300000 0.000000
0.326100 -0.491240 0.566181 0.600000 0.300000 0.000000
0.446740 0.348550 -0.013245 0.000000 0.500000 0.500000
0.127890 -0.208157 0.555704 0.600000 0.300000 0.000000
-0.030377 0.630999 -0.336722 0.300000 0.600000 0.000000
0.240369 0.521264 0.161153 0.600000 0.000000 0.300000
0.424793 -0.578120 -0.212505 0.000000 0.500000 0.500000
-0.368039 -0.269993 -0.018236 0.300000 0.000000 0.600000
0.017430 0.521264 0.108047 0.600000 0.000000 0.300000
0.424793 -0.235193 0.334026 0.000000 0.500000 0.500000
0.235407 -0.002786 0.566181 0.000000 1.000000 0.000000
0.098219 -0.584273 0.533261 0.000000 0.000000 1.000000
-0.368039 0.268316 -0.105109 0.500000 0.000000 0.500000
0.224989 -0.529082 0.533261 0.600000 0.300000 0.000000
0.129985 0.529495 -0.064113 0.600000 0.000000 0.300000
0.160275 0.422703 -0.487270 0.600000 0.000000 0.300000
0.446740 0.549043 -0.022277 0.000000 0.500000 0.500000
-0.431136 -0.039241 -0.028687 0.500000 0.000000 0.500000
-0.335118 -0.479165 0.361483 0.300000 0.000000 0.600000
-0.176499 0.436417 -0.487270 0.600000 0.000000 0.300000
-0.335118 0.097434 0.354684 0.500000 0.000000 0.500000
-0.009573 -0.477320 0.478868 0.000000 0.000000 1.000000
0.005336 0.009784 0.566181 0.000000 1.000000 0.000000
0.424793 0.064860 0.386047 0.000000 0.500000 0.500000
0.106942 -0.280744 0.500340 0.600000 0.300000 0.000000
0.264015 0.289055 0.554619 0.000000 1.000000 0.000000
-0.368039 0.245169 0.085255 0.500000 0.000000 0.500000
0.361696 0.210352 0.140579 0.500000 0.500000 0.000000
-0.133287 0.529495 0.392000 0.600000 0.000000 0.300000
0.165786 -0.469090 0.122242 0.000000 0.000000 1.000000
-0.453083 0.456208 -0.338934 0.500000 0.000000 0.500000
0.328775 0.113893 0.144739 0.500000 0.500000 0.000000
0.446740 -0.108728 0.422771 0.000000 0.500000 0.500000
-0.395984 0.730127 0.500340 1.000000 0.000000 0.000000
0.446740 0.163590 -0.427507 0.000000 0.500000 0.500000
0.093495 0.624593 -0.344616 0.300000 0.600000 0.000000
-0.356200 -0.016435 0.249292 0.500000 0.000000 0.500000
-0.368039 0.519247 0.456212 0.000000 0.500000 0.500000
0.167943 0.517774 0.533261 0.500000 0.500000 0.000000
0.143385 0.521264 -0.221829 0.600000 0.000000 0.300000
-0.439009 -0.183292 -0.520191 0.500000 0.000000 0.500000
-0.270340 -0.720758 -0.520191 0.500000 0.000000 0.500000
0.180731 0.553898 -0.470810 0.600000 0.000000 0.300000
0.446740 0.212081 0.155410 0.000000 0.500000 0.500000
0.424793 0.556495 -0.222672 0.000000 0.500000 0.500000
0.391873 0.616166 0.503695 0.800000 0.200000 0.500000
-0.453083 0.728944 0.162106 0.500000 0.000000 0.500000
-0.392746 0.003889 0.533261 0.000000 1.000000 0.000000
0.442603 -0.557505 0.560886 0.600000 0.300000 0.000000
-0.110755 0.521264 0.306654 0.600000 0.000000 0.300000
-0.233805 0.447724 -0.487270 0.600000 0.000000 0.300000
0.399999 -0.127107 0.533261 0.800000 0.200000 0.500000
0.424793 -0.010028 0.008775 0.000000 0.500000 0.500000
0.424793 0.346587 0.264029 0.000000 0.500000 0.500000
-0.094546 0.229966 -0.470810 0.600000 0.000000 0.300000
0.361696 -0.428205 -0.037093 0.600000 0.000000 0.300000
0.117633 -0.223094 -0.487270 0.600000 0.000000 0.300000
-0.335118 -0.242365 -0.285196 0.300000 0.000000 0.600000
0.202968 0.013742 0.098095 0.300000 0.600000 0.000000
0.361696 0.333939 -0.059140 0.500000 0.500000 0.000000
-0.272181 -0.148116 0.501397 0.600000 0.300000 0.000000
0.284651 0.499513 0.500340 0.500000 0.500000 0.000000
0.365573 0.699583 -0.289323 1.000000 0.000000 0.000000
-0.342769 0.502751 -0.470810 0.600000 0.000000 0.300000
0.361696 -0.314796 0.323947 0.600000 0.000000 0.300000
0.232808 0.044665 -0.344616 0.000000 0.500000 0.500000
0.136908 -0.498520 0.533261 0.600000 0.300000 0.000000
-0.431136 -0.068193 -0.372958 0.500000 0.000000 0.500000
-0.431136 0.523549 0.223750 0.500000 0.000000 0.500000
0.446740 -0.467035 -0.268113 0.000000 0.500000 0.500000
0.446740 -0.549805 0.230307 0.000000 0.500000 0.500000
-0.340965 0.630999 -0.073952 0.000000 0.500000 0.500000
-0.431136 0.519243 0.144742 0.500000 0.000000 0.500000
0.015758 0.275026 0.533261 0.000000 1.000000 0.000000
-0.195397 -0.529444 -0.035754 0.300000 0.000000 0.600000
-0.335118 0.265993 0.441842 0.500000 0.000000 0.500000
0.446740 -0.688769 -0.035423 0.000000 0.500000 0.500000
0.401411 -0.424103 0.500340 0.800000 0.200000 0.500000
0.359872 0.499317 -0.037922 0.500000 0.000000 0.500000
-0.368039 -0.264732 -0.181557 0.300000 0.000000 0.600000
0.234187 -0.622564 0.396093 0.300000 0.600000 0.000000
-0.390249 -0.529444 0.399695 0.300000 0.000000 0.600000
0.328775 -0.223727 -0.106555 0.600000 0.000000 0.300000
0.018259 -0.338258 0.533261 0.600000 0.300000 0.000000
-0.347950 0.334716 0.330894 0.500000 0.000000 0.500000
0.424793 0.145465 -0.110682 0.000000 0.500000 0.500000
0.170206 -0.469149 -0.487270 0.600000 0.000000 0.300000
-0.031554 -0.245713 0.500340 0.600000 0.300000 0.000000
-0.453083 0.682661 0.129495 0.500000 0.000000 0.500000
-0.042385 -0.529444 0.302333 0.300000 0.000000 0.600000
0.361696 0.602620 0.021018 0.500000 0.000000 0.500000
-0.437264 -0.774864 -0.520191 0.600000 0.000000 0.300000
-0.032221 -0.469090 -0.042080 0.000000 0.000000 1.000000
0.003257 0.172638 -0.311695 0.000000 0.500000 0.500000
-0.072307 -0.381208 0.500340 0.600000 0.300000 0.000000
0.297649 0.621423 -0.344616 0.300000 0.600000 0.000000
0.446740 -0.217187 -0.277796 0.000000 0.500000 0.500000
-0.249428 -0.477320 0.149831 0.000000 0.000000 1.000000
0.173956 0.132624 -0.311695 0.000000 0.500000 0.500000
0.446740 -0.659432 0.175649 0.000000 0.500000 0.500000
-0.367962 0.334716 -0.043261 0.500000 0.000000 0.500000
-0.012207 0.013742 0.065406 0.300000 0.600000 0.000000
0.424793 0.199349 -0.176588 0.000000 0.500000 0.500000
0.272464 0.178472 0.500340 0.000000 1.000000 0.000000
-0.418314 0.551287 0.500340 0.600000 0.000000 0.300000
-0.256401 -0.529444 -0.359810 0.300000 0.000000 0.600000
-0.431136 0.637657 -0.216899 0.500000 0.000000 0.500000
-0.160572 -0.356200 0.533261 0.600000 0.300000 0.000000
-0.178265 0.013742 0.398862 0.300000 0.600000 0.000000
0.371005 -0.549164 -0.470810 0.600000 0.000000 0.300000
-0.335118 0.126863 0.199615 0.500000 0.000000 0.500000
0.424793 -0.060508 -0.402290 0.000000 0.500000 0.500000
0.328775 -0.338946 -0.054345 0.600000 0.000000 0.300000
0.424793 0.260056 -0.257950 0.000000 0.500000 0.500000
0.446740 -0.103840 -0.253706 0.000000 0.500000 0.500000
-0.453083 0.454406 0.218738 0.500000 0.000000 0.500000
-0.453083 0.066255 -0.309220 0.500000 0.000000 0.500000
0.150035 0.013742 0.406495 0.300000 0.600000 0.000000
0.424793 0.446666 -0.285594 0.000000 0.500000 0.500000
0.446740 -0.123777 0.236429 0.000000 0.500000 0.500000
0.361696 0.210019 -0.281180 0.500000 0.500000 0.000000
0.121145 -0.529444 0.292951 0.300000 0.000000 0.600000
0.086682 0.272960 0.533261 0.000000 1.000000 0.000000
0.018176 0.005512 -0.093381 0.300000 0.600000 0.000000
0.343067 0.677636 -0.102071 1.000000 0.000000 0.000000
-0.127849 0.013742 -0.155723 0.300000 0.600000 0.000000
-0.431136 0.662052 0.291912 0.500000 0.000000 0.500000
0.051926 -0.395872 -0.487270 0.600000 0.000000 0.300000
-0.273049 -0.613655 0.396093 0.300000 0.600000 0.000000
0.309621 0.697747 0.566181 0.500000 0.500000 0.000000
-0.114579 -0.469090 -0.244712 0.000000 0.000000 1.000000
0.280066 0.104463 0.566181 0.000000 1.000000 0.000000
-0.368039 0.506160 0.058429 0.000000 0.500000 0.500000
0.233099 0.688139 0.533261 1.000000 0.000000 0.000000
0.096906 0.694589 0.566181 0.500000 0.500000 0.000000
-0.249482 -0.298136 0.500340 0.600000 0.300000 0.000000
0.070412 0.091686 0.558644 0.000000 1.000000 0.000000
0.111640 0.137441 -0.311695 0.000000 0.500000 0.500000
-0.335118 0.080180 0.096433 0.500000 0.000000 0.500000
-0.257385 -0.407411 -0.470810 0.600000 0.000000 0.300000
0.446740 -0.255140 -0.108817 0.000000 0.500000 0.500000
-0.338174 0.274590 0.533261 0.500000 0.000000 0.500000
0.114182 -0.311821 -0.487270 0.600000 0.000000 0.300000
-0.368039 -0.150128 0.323586 0.300000 0.000000 0.600000
-0.360264 0.630999 0.491565 0.000000 0.500000 0.500000
0.328775 0.318508 -0.294269 0.500000 0.500000 0.000000
0.287215 -0.529444 0.218357 0.300000 0.000000 0.600000
0.424793 -0.014828 -0.179597 0.000000 0.500000 0.500000
0.299207 -0.771389 -0.520191 0.500000 0.000000 0.500000
-0.147547 0.013742 -0.056565 0.300000 0.600000 0.000000
-0.188339 -0.529444 0.310078 0.300000 0.000000 0.600000
-0.335629 0.397892 0.500340 0.500000 0.500000 0.000000
-0.453083 -0.202520 0.227783 0.500000 0.000000 0.500000
0.260163 0.013742 -0.198411 0.300000 0.600000 0.000000
-0.057019 -0.027114 -0.487270 0.600000 0.000000 0.300000
-0.299455 0.693922 -0.014989 0.000000 1.000000 0.000000
-0.012954 0.050061 -0.311695 0.000000 0.500000 0.500000
0.424793 -0.012583 0.319386 0.000000 0.500000 0.500000
0.338364 -0.644405 -0.520191 0.500000 0.000000 0.500000
-0.051158 0.545875 -0.470810 0.600000 0.000000 0.300000
0.117098 0.440164 0.500340 0.500000 0.500000 0.000000
-0.431136 0.430944 -0.138845 0.500000 0.000000 0.500000
0.065327 -0.477320 0.181421 0.000000 0.000000 1.000000
-0.335118 -0.316447 0.262100 0.300000 0.000000 0.600000
-0.331264 -0.469090 -0.157436 0.000000 0.000000 1.000000
-0.381303 -0.529444 -0.176393 0.300000 0.000000 0.600000
0.076763 0.386288 0.566181 0.000000 1.000000 0.000000
0.403289 -0.288788 0.500340 0.800000 0.200000 0.500000
-0.332526 0.395226 -0.487270 0.600000 0.000000 0.300000
0.280052 -0.048557 0.566084 0.000000 1.000000 0.000000
0.032967 -0.243870 0.500340 0.600000 0.300000 0.000000
0.312118 -0.128132 0.533261 0.600000 0.300000 0.000000
0.361696 -0.177738 0.272897 0.600000 0.000000 0.300000
-0.013600 0.106405 0.500340 0.000000 1.000000 0.000000
-0.367141 0.499317 -0.206394 0.000000 0.500000 0.500000
-0.431136 -0.339321 -0.192515 0.500000 0.000000 0.500000
-0.193656 -0.190280 -0.344616 0.800000 0.200000 0.500000
0.446740 -0.073430 0.157768 0.000000 0.500000 0.500000
-0.105021 0.288382 0.554670 0.000000 1.000000 0.000000
0.385595 -0.529444 -0.117666 0.300000 0.000000 0.600000
0.457714 -0.239227 0.531058 0.800000 0.200000 0.500000
0.228358 0.529495 -0.044634 0.600000 0.000000 0.300000
-0.453083 0.454228 0.037967 0.500000 0.000000 0.500000
0.328775 -0.480208 -0.195308 0.600000 0.000000 0.300000
0.328732 0.281488 0.362538 0.000000 0.000000 1.000000
-0.071536 0.237790 -0.344616 0.000000 0.500000 0.500000
-0.368039 0.228308 -0.036028 0.500000 0.000000 0.500000
0.328775 0.010925 -0.336280 0.500000 0.500000 0.000000
0.420422 0.710804 0.566181 0.500000 0.500000 0.000000
-0.308619 -0.581313 0.500340 0.000000 0.000000 1.000000
0.239073 -0.584311 0.501186 0.000000 0.000000 1.000000
-0.431136 0.143395 0.397052 0.500000 0.000000 0.500000
-0.453083 -0.571897 -0.433808 0.500000 0.000000 0.500000
0.361696 -0.279212 -0.332675 0.600000 0.000000 0.300000
0.365723 -0.529444 0.140285 0.300000 0.000000 0.600000
-0.094463 -0.529444 0.202045 0.300000 0.000000 0.600000
0.056694 0.120421 -0.344616 0.000000 0.500000 0.500000
-0.099211 -0.469090 0.016779 0.000000 0.000000 1.000000
-0.368039 0.067826 -0.192071 0.500000 0.000000 0.500000
-0.431136 0.664850 0.079683 0.500000 0.000000 0.500000
-0.066593 0.334851 0.533261 0.000000 1.000000 0.000000
0.105900 -0.539959 -0.520191 0.500000 0.000000 0.500000
0.446740 0.047091 -0.441774 0.000000 0.500000 0.500000
0.325103 0.193026 0.533261 0.000000 1.000000 0.000000
0.225400 -0.469090 0.449721 0.000000 0.000000 1.000000
-0.453083 0.017871 0.115656 0.500000 0.000000 0.500000
-0.123365 -0.285553 0.500340 0.600000 0.300000 0.000000
0.164329 -0.469090 0.349154 0.000000 0.000000 1.000000
0.446740 0.723716 -0.410771 0.000000 0.500000 0.500000
0.424793 -0.161009 -0.034842 0.000000 0.500000 0.500000
-0.431136 -0.166372 -0.425510 0.500000 0.000000 0.500000
0.446740 0.477068 -0.211541 0.000000 0.500000 0.500000
0.025468 -0.412408 0.566181 0.600000 0.300000 0.000000
-0.453083 -0.611001 0.337743 0.600000 0.000000 0.300000
0.024992 -0.529444 0.247139 0.300000 0.000000 0.600000
-0.431136 -0.280750 -0.205594 0.500000 0.000000 0.500000
-0.296535 -0.477320 0.045931 0.000000 0.000000 1.000000
0.328775 -0.428690 0.502122 0.600000 0.000000 0.300000
-0.259369 0.267777 -0.470810 0.600000 0.000000 0.300000
0.356172 -0.706127 -0.520191 0.500000 0.000000 0.500000
0.304315 0.445046 0.566181 0.500000 0.500000 0.000000
0.120303 0.643729 -0.520191 0.600000 0.300000 0.000000
0.424793 -0.555228 0.314160 0.000000 0.500000 0.500000
-0.453083 -0.760735 -0.294451 0.600000 0.000000 0.300000
-0.431136 -0.345216 0.006545 0.500000 0.000000 0.500000
-0.059050 -0.469090 0.062651 0.000000 0.000000 1.000000
-0.123417 0.081228 0.556473 0.000000 1.000000 0.000000
-0.453083 -0.047339 -0.463305 0.500000 0.000000 0.500000
0.446740 0.226500 -0.056787 0.000000 0.500000 0.500000
0.361696 0.236052 0.430496 0.500000 0.500000 0.000000
-0.251711 -0.092881 0.566181 0.600000 0.300000 0.000000
-0.122034 -0.459353 0.554600 0.600000 0.300000 0.000000
0.361696 -0.235211 0.480740 0.600000 0.000000 0.300000
0.446740 -0.575199 0.460706 0.000000 0.500000 0.500000
0.424793 0.457055 0.431381 0.000000 0.500000 0.500000
0.361696 -0.479443 0.262546 0.600000 0.000000 0.300000
0.438288 0.663166 -0.520191 0.000000 0.500000 0.500000
-0.308426 -0.529444 0.336264 0.300000 0.000000 0.600000
0.398459 0.218815 0.533261 0.000000 1.000000 0.000000
-0.453083 0.508722 0.018997 0.500000 0.000000 0.500000
-0.464057 -0.205705 0.521614 0.600000 0.000000 0.300000
0.424793 -0.198942 -0.124050 0.000000 0.500000 0.500000
-0.272791 0.121298 0.566181 0.000000 1.000000 0.000000
0.446740 -0.503991 -0.501619 0.000000 0.500000 0.500000
-0.431136 0.269077 0.292804 0.500000 0.000000 0.500000
0.361696 0.629522 -0.126557 0.500000 0.000000 0.500000
-0.123545 -0.182370 -0.470810 0.600000 0.000000 0.300000
0.136829 0.521264 0.290296 0.600000 0.000000 0.300000
0.340844 0.630999 -0.205498 0.500000 0.000000 0.500000
0.201967 0.013742 0.279780 0.300000 0.600000 0.000000
0.328775 -0.356228 -0.343955 0.600000 0.000000 0.300000
0.020484 0.529495 0.009984 0.600000 0.000000 0.300000
-0.368039 0.557982 0.410794 0.000000 0.500000 0.500000
0.116924 -0.101479 0.516321 0.600000 0.300000 0.000000
0.112427 -0.496325 -0.344616 0.800000 0.200000 0.500000
0.446740 0.632526 -0.036757 0.000000 0.500000 0.500000
-0.404404 -0.529444 0.162257 0.300000 0.000000 0.600000
0.446740 -0.208988 -0.022585 0.000000 0.500000 0.500000
-0.431136 0.036022 -0.171682 0.500000 0.000000 0.500000
0.241203 0.529495 0.263157 0.600000 0.000000 0.300000
0.212707 -0.357752 -0.344616 0.800000 0.200000 0.500000
-0.431136 -0.070070 0.079976 0.500000 0.000000 0.500000
0.361696 -0.311625 -0.150676 0.600000 0.000000 0.300000
0.328775 0.066297 -0.210165 0.500000 0.500000 0.000000
0.361696 -0.223670 -0.189649 0.600000 0.000000 0.300000
0.172905 -0.529444 -0.421088 0.300000 0.000000 0.600000
-0.431136 0.243976 0.477572 0.500000 0.000000 0.500000
-0.081853 -0.252957 -0.487270 0.600000 0.000000 0.300000
-0.347400 -0.051305 0.533261 0.000000 1.000000 0.000000
0.220889 -0.100616 0.566181 0.600000 0.300000 0.000000
0.328775 -0.212009 0.173233 0.600000 0.000000 0.300000
-0.071476 -0.312760 0.566181 0.600000 0.300000 0.000000
0.446740 -0.357654 -0.440765 0.000000 0.500000 0.500000
0.195209 -0.469090 -0.293341 0.000000 0.000000 1.000000
-0.299163 0.682436 -0.520191 0.600000 0.300000 0.000000
-0.368039 0.041542 0.322844 0.500000 0.000000 0.500000
-0.335118 -0.285143 0.171194 0.300000 0.000000 0.600000
0.446740 0.243656 -0.485901 0.000000 0.500000 0.500000
0.397748 0.454429 0.533261 0.500000 0.500000 0.000000
-0.431136 -0.247024 0.050499 0.500000 0.000000 0.500000
-0.108014 -0.035638 0.517507 0.600000 0.300000 0.000000
-0.335118 -0.316414 0.454978 0.300000 0.000000 0.600000
-0.431136 -0.104033 -0.028190 0.500000 0.000000 0.500000
-0.182356 0.013742 0.297112 0.300000 0.600000 0.000000
0.145413 0.529495 0.217745 0.600000 0.000000 0.300000
0.446740 0.251785 0.261168 0.000000 0.500000 0.500000
-0.048647 0.529495 0.330897 0.600000 0.000000 0.300000
0.294398 0.521264 0.138106 0.600000 0.000000 0.300000
-0.335118 0.218053 0.503058 0.500000 0.000000 0.500000
0.072543 0.600822 -0.493675 0.600000 0.300000 0.000000
0.170474 -0.123352 -0.487270 0.600000 0.000000 0.300000
-0.134111 -0.432132 -0.344616 0.800000 0.200000 0.500000
-0.419458 0.119738 0.500340 0.600000 0.000000 0.300000
-0.431136 0.418169 0.483601 0.500000 0.000000 0.500000
-0.368039 -0.471093 -0.052311 0.300000 0.000000 0.600000
-0.453083 0.511213 0.410227 0.500000 0.000000 0.500000
0.098362 -0.469090 -0.262787 0.000000 0.000000 1.000000
-0.158812 0.521264 -0.291335 0.600000 0.000000 0.300000
0.044903 0.529495 0.304464 0.600000 0.000000 0.300000
-0.455826 0.108892 0.543167 0.000000 1.000000 0.000000
0.424793 -0.131071 -0.129530 0.000000 0.500000 0.500000
-0.453083 0.361538 -0.268174 0.500000 0.000000 0.500000
-0.102025 -0.565009 0.564781 0.600000 0.300000 0.000000
-0.003108 0.732503 0.520879 1.000000 0.000000 0.000000
-0.453083 0.080776 -0.151373 0.500000 0.000000 0.500000
0.123495 0.422516 0.551932 0.500000 0.500000 0.000000
-0.315398 0.005512 0.324792 0.300000 0.600000 0.000000
-0.230370 0.005512 -0.067296 0.300000 0.600000 0.000000
0.087006 -0.529444 0.380498 0.300000 0.000000 0.600000
0.076391 0.183615 0.573983 1.000000 0.000000 0.000000
0.424793 -0.408285 0.021083 0.000000 0.500000 0.500000
0.446740 0.420087 0.276354 0.000000 0.500000 0.500000
0.097337 0.224710 -0.344616 0.000000 0.500000 0.500000
-0.453083 0.715145 -0.359349 0.500000 0.000000 0.500000
-0.191458 -0.477320 0.070421 0.000000 0.000000 1.000000
0.285213 0.668238 -0.487270 0.600000 0.000000 0.300000
-0.196725 0.606910 -0.520191 0.600000 0.300000 0.000000
-0.431136 0.066947 -0.387561 0.500000 0.000000 0.500000
-0.425850 0.677636 -0.146444 0.000000 1.000000 0.000000
0.361696 -0.375806 -0.091356 0.600000 0.000000 0.300000
0.005580 -0.201214 -0.311695 0.800000 0.200000 0.500000
-0.119605 0.582188 -0.344616 0.300000 0.600000 0.000000
0.126565 0.290699 -0.487270 0.600000 0.000000 0.300000
-0.368039 0.118738 -0.052167 0.500000 0.000000 0.500000
0.424793 -0.027664 0.243667 0.000000 0.500000 0.500000
0.446740 -0.640643 -0.096248 0.000000 0.500000 0.500000
-0.431136 -0.013848 0.160004 0.500000 0.000000 0.500000
0.361696 0.010551 0.154099 0.500000 0.500000 0.000000
0.366196 -0.350457 0.533261 0.600000 0.300000 0.000000
-0.431136 0.601206 -0.445676 0.500000 0.000000 0.500000
0.328775 0.563827 0.373954 0.500000 0.000000 0.500000
0.187762 -0.056705 0.500340 0.600000 0.300000 0.000000
-0.335118 0.596313 -0.282839 0.000000 0.500000 0.500000
-0.272793 0.085291 -0.311695 0.000000 0.500000 0.500000
-0.431136 0.366495 0.405398 0.500000 0.000000 0.500000
0.446740 -0.766875 -0.438968 0.000000 0.500000 0.500000
0.240579 -0.462536 0.500340 0.600000 0.300000 0.000000
-0.351726 -0.291777 -0.470810 0.600000 0.000000 0.300000
0.079251 -0.649602 -0.520191 0.500000 0.000000 0.500000
0.361696 0.263356 0.087857 0.500000 0.500000 0.000000
0.361696 0.047125 0.203251 0.500000 0.500000 0.000000
-0.081350 0.005512 0.491582 0.300000 0.600000 0.000000
-0.336132 0.630999 0.350452 0.000000 0.500000 0.500000
0.140098 0.119382 0.533261 0.000000 1.000000 0.000000
-0.268072 0.196431 -0.311695 0.000000 0.500000 0.500000
0.008555 0.197013 0.566181 0.000000 1.000000 0.000000
0.131052 0.334716 -0.318508 0.000000 0.500000 0.500000
-0.335118 -0.410991 -0.108524 0.300000 0.000000 0.600000
-0.453083 -0.028356 -0.328232 0.500000 0.000000 0.500000
0.366457 -0.760432 0.396093 0.300000 0.600000 0.000000
-0.356370 -0.183902 -0.470810 0.600000 0.000000 0.300000
0.424793 0.351387 -0.218302 0.000000 0.500000 0.500000
0.446740 0.384018 -0.125666 0.000000 0.500000 0.500000
0.446740 0.570972 0.073324 0.000000 0.500000 0.500000
0.281856 -0.523957 -0.511797 0.500000 0.000000 0.500000
0.446740 -0.125957 -0.001460 0.000000 0.500000 0.500000
0.424793 -0.284253 -0.201821 0.000000 0.500000 0.500000
-0.368039 0.033188 -0.315056 0.500000 0.000000 0.500000
0.446740 0.124778 -0.215099 0.000000 0.500000 0.500000
0.036587 -0.477320 -0.171239 0.000000 0.000000 1.000000
0.036999 0.013742 -0.300598 0.300000 0.600000 0.000000
0.446740 0.238777 0.033750 0.000000 0.500000 0.500000
-0.208878 0.115529 -0.470810 0.600000 0.000000 0.300000
0.449395 0.557239 0.552177 0.500000 0.500000 0.000000
0.328775 0.163795 0.067003 0.500000 0.500000 0.000000
0.446740 -0.763892 0.148753 0.000000 0.500000 0.500000
0.424793 0.700755 -0.289453 0.000000 0.500000 0.500000
-0.431136 0.545728 -0.262986 0.500000 0.000000 0.500000
0.328775 0.619344 0.424367 0.500000 0.000000 0.500000
0.118138 0.070195 -0.470810 0.600000 0.000000 0.300000
0.311255 0.677636 0.323767 1.000000 0.000000 0.000000
-0.255299 -0.517146 0.533261 0.600000 0.300000 0.000000
-0.369983 0.732503 -0.497525 0.600000 0.300000 0.000000
0.446740 0.424830 0.329118 0.000000 0.500000 0.500000
-0.024843 -0.469090 0.386319 0.000000 0.000000 1.000000
-0.189435 0.529495 0.203360 0.600000 0.000000 0.300000
0.198937 -0.591629 -0.520191 0.500000 0.000000 0.500000
0.362536 -0.529444 -0.330696 0.300000 0.000000 0.600000
0.328775 0.099975 -0.049620 0.500000 0.500000 0.000000
0.328775 -0.283512 -0.263193 0.600000 0.000000 0.300000
-0.453083 -0.388916 0.272886 0.500000 0.000000 0.500000
0.417050 -0.075716 -0.470810 0.600000 0.000000 0.300000
-0.109517 0.216677 -0.311695 0.000000 0.500000 0.500000
-0.057346 0.005512 0.369826 0.300000 0.600000 0.000000
0.446740 0.101404 0.470748 0.000000 0.500000 0.500000
-0.303839 0.521264 0.297042 0.600000 0.000000 0.300000
0.446740 -0.777590 -0.091251 0.000000 0.500000 0.500000
-0.053481 -0.468071 -0.344616 0.800000 0.200000 0.500000
-0.276420 0.252750 0.564371 0.000000 1.000000 0.000000
0.446740 0.123999 0.302306 0.000000 0.500000 0.500000
-0.453083 -0.092809 -0.501967 0.500000 0.000000 0.500000
-0.309132 -0.148116 -0.311755 0.800000 0.200000 0.500000
-0.245839 -0.016435 -0.338688 0.000000 0.500000 0.500000
-0.180902 -0.529444 0.125665 0.300000 0.000000 0.600000
-0.359097 0.699583 -0.077760 0.000000 1.000000 0.000000
0.328775 0.021395 0.469975 0.500000 0.500000 0.000000
-0.144227 -0.529444 0.410275 0.300000 0.000000 0.600000
0.061975 -0.510360 -0.470810 0.600000 0.000000 0.300000
-0.231826 0.193351 0.500340 0.000000 1.000000 0.000000
-0.247672 -0.101479 0.500475 0.600000 0.300000 0.000000
-0.453083 -0.403899 -0.267064 0.500000 0.000000 0.500000
-0.110047 -0.429058 0.500340 0.600000 0.300000 0.000000
-0.386346 0.381353 0.517671 0.500000 0.500000 0.000000
0.331307 0.108532 -0.487270 0.600000 0.000000 0.300000
0.361696 0.501836 -0.223438 0.500000 0.000000 0.500000
-0.276717 -0.529444 0.414728 0.300000 0.000000 0.600000
-0.102579 -0.529444 -0.403479 0.300000 0.000000 0.600000
0.332927 -0.529444 -0.013814 0.300000 0.000000 0.600000
-0.368039 0.581100 0.225523 0.000000 0.500000 0.500000
-0.453083 -0.510588 -0.233871 0.500000 0.000000 0.500000
-0.335118 0.548992 -0.066986 0.000000 0.500000 0.500000
-0.368039 -0.370385 0.188028 0.300000 0.000000 0.600000
0.361696 0.128033 0.498393 0.500000 0.500000 0.000000
-0.431136 0.549205 -0.386483 0.500000 0.000000 0.500000
0.253589 -0.331474 0.566181 0.600000 0.300000 0.000000
-0.358076 -0.312688 -0.344616 0.300000 0.000000 0.600000
-0.114506 -0.722542 -0.520191 0.500000 0.000000 0.500000
-0.453083 -0.135918 0.159377 0.500000 0.000000 0.500000
-0.368039 -0.174958 -0.272809 0.300000 0.000000 0.600000
0.024554 -0.148342 0.500340 0.600000 0.300000 0.000000
-0.183077 0.500533 -0.344616 0.300000 0.600000 0.000000
-0.453083 -0.679152 0.200111 0.600000 0.000000 0.300000
-0.039536 -0.659832 -0.520191 0.500000 0.000000 0.500000
0.328775 -0.390309 0.163881 0.600000 0.000000 0.300000
-0.453083 0.690655 0.486863 0.500000 0.000000 0.500000
-0.431136 0.484793 -0.442864 0.500000 0.000000 0.500000
0.312613 0.259948 0.500340 0.000000 1.000000 0.000000
0.361696 0.292166 0.250305 0.500000 0.500000 0.000000
-0.385798 0.709875 0.566181 0.500000 0.500000 0.000000
-0.059665 0.005512 0.143468 0.300000 0.600000 0.000000
-0.084474 -0.529444 -0.053926 0.300000 0.000000 0.600000
-0.328124 0.317128 -0.344616 0.000000 0.500000 0.500000
0.226755 0.114182 -0.470810 0.600000 0.000000 0.300000
0.328775 -0.400604 0.004431 0.600000 0.000000 0.300000
-0.075117 0.131631 -0.487270 0.600000 0.000000 0.300000
-0.335118 0.068378 0.176147 0.500000 0.000000 0.500000
-0.261909 0.521264 -0.273634 0.600000 0.000000 0.300000
-0.368039 -0.149589 -0.066464 0.300000 0.000000 0.600000
-0.185349 -0.477320 0.444086 0.000000 0.000000 1.000000
-0.066633 -0.523957 -0.512511 0.500000 0.000000 0.500000
-0.004142 -0.529444 -0.217133 0.300000 0.000000 0.600000
0.328775 -0.476573 0.407564 0.600000 0.000000 0.300000
-0.335118 0.281872 0.010194 0.500000 0.000000 0.500000
-0.078161 0.521264 -0.199258 0.600000 0.000000 0.300000
-0.368039 -0.403020 0.306248 0.300000 0.000000 0.600000
-0.169484 -0.529444 -0.141775 0.300000 0.000000 0.600000
0.328775 0.073840 -0.285776 0.500000 0.500000 0.000000
-0.192741 0.172122 0.566181 0.000000 1.000000 0.000000
-0.311856 0.521264 -0.173293 0.600000 0.000000 0.300000
0.265655 0.564255 -0.344616 0.300000 0.600000 0.000000
-0.453083 0.214691 0.115399 0.500000 0.000000 0.500000
-0.390556 0.699583 0.372392 0.000000 1.000000 0.000000
-0.381382 -0.529444 -0.437025 0.300000 0.000000 0.600000
-0.367675 -0.357273 0.533261 0.600000 0.300000 0.000000
-0.360452 0.699583 0.476630 0.000000 1.000000 0.000000
-0.413170 -0.034954 0.500340 0.600000 0.000000 0.300000
0.026231 0.499317 -0.315453 0.300000 0.600000 0.000000
-0.034973 -0.199886 -0.344616 0.800000 0.200000 0.500000
-0.324796 -0.529444 0.251358 0.300000 0.000000 0.600000
-0.453083 -0.008365 0.275073 0.500000 0.000000 0.500000
0.003638 -0.016435 0.521277 0.000000 1.000000 0.000000
0.411791 -0.452933 0.566181 0.600000 0.300000 0.000000
-0.368039 0.541358 0.329164 0.000000 0.500000 0.500000
-0.431136 -0.490374 -0.334063 0.500000 0.000000 0.500000
0.424793 0.506512 0.483464 0.000000 0.500000 0.500000
-0.420917 -0.529444 0.447605 0.300000 0.000000 0.600000
-0.453083 -0.117217 0.480763 0.500000 0.000000 0.500000
-0.453083 -0.141887 0.066960 0.500000 0.000000 0.500000
-0.335118 -0.494411 0.098067 0.300000 0.000000 0.600000
-0.431136 0.375686 -0.450365 0.500000 0.000000 0.500000
0.347218 -0.363062 -0.487270 0.600000 0.000000 0.300000
0.361696 0.324333 0.426947 0.500000 0.500000 0.000000
0.328775 -0.319580 0.016273 0.600000 0.000000 0.300000
-0.350171 -0.148116 0.193752 0.300000 0.000000 0.600000
-0.431136 -0.339070 0.157277 0.500000 0.000000 0.500000
