ply
format ascii 1.0
element vertex 1264
property float x
property float y
property float z
property uchar red
property uchar green
property uchar blue
end_header
0.365276 0.514010 0.566181 127 127 0
-0.335118 0.031905 0.378360 127 0 127
0.219641 0.529495 0.396841 153 0 76
-0.037531 0.521264 -0.164291 153 0 76
-0.007267 -0.025285 0.566181 0 255 0
-0.453083 -0.608190 -0.010316 153 0 76
0.424793 0.005339 0.092401 0 127 127
-0.430865 -0.603824 -0.520191 127 0 127
0.304609 -0.338097 0.500340 153 76 0
-0.368039 0.134335 -0.004168 127 0 127
-0.431136 0.193612 -0.195924 127 0 127
0.118117 0.013742 0.335143 76 153 0
0.112813 -0.127025 0.566181 153 76 0
0.442622 0.498279 0.560609 127 127 0
0.226064 0.320168 -0.344616 0 127 127
0.207982 -0.565009 0.565089 153 76 0
0.136090 0.529495 0.237629 153 0 76
0.207512 0.529495 -0.276525 153 0 76
-0.373971 0.699583 0.234091 0 255 0
-0.252033 -0.734295 -0.520191 127 0 127
0.424793 0.513468 -0.236707 0 127 127
-0.430433 0.522934 0.500340 127 0 127
-0.138451 -0.310315 -0.311695 204 51 127
0.361696 0.624388 0.240257 127 0 127
0.245957 0.499685 -0.311695 76 153 0
0.424793 0.657316 -0.303623 0 127 127
-0.224342 0.542761 -0.344616 76 153 0
-0.335118 0.627400 0.191214 0 127 127
0.424793 0.647118 0.406952 0 127 127
0.063669 -0.080680 -0.487270 153 0 76
-0.335118 -0.305348 0.279541 76 0 153
-0.431136 -0.498002 -0.206914 127 0 127
0.361498 -0.331163 0.564759 153 76 0
0.424793 -0.444966 -0.114315 0 127 127
-0.431136 0.436799 0.234581 127 0 127
-0.453083 0.493745 -0.478111 127 0 127
-0.333431 -0.481101 0.557965 153 76 0
-0.368039 -0.177200 0.217927 76 0 153
0.328775 0.048918 -0.019758 127 127 0
0.424793 0.616835 0.017693 0 127 127
-0.453083 -0.428909 -0.131824 127 0 127
0.117133 0.004974 -0.470810 153 0 76
0.361696 0.520118 -0.120181 127 0 127
-0.431136 -0.570593 -0.436668 127 0 127
-0.142690 -0.449773 0.555323 153 76 0
0.361696 -0.328836 -0.214921 153 0 76
0.162452 0.478882 -0.470810 153 0 76
-0.453083 0.618760 -0.207322 127 0 127
0.424793 -0.254143 0.048906 0 127 127
0.446740 -0.368858 -0.422073 0 127 127
-0.096675 0.075358 -0.344616 0 127 127
0.026175 -0.477320 -0.172538 0 0 255
0.361696 0.590915 0.163448 127 0 127
0.169580 0.568007 0.566181 127 127 0
-0.072146 -0.745372 -0.520191 127 0 127
0.391873 0.092738 0.502978 204 51 127
-0.368039 -0.216700 0.059713 76 0 153
0.446740 -0.374522 -0.322610 0 127 127
-0.254163 -0.355246 -0.311695 204 51 127
-0.453083 0.692033 -0.313358 127 0 127
0.328775 0.229952 0.206768 127 127 0
0.355433 -0.499267 -0.269202 153 0 76
-0.453083 -0.425404 -0.385484 127 0 127
-0.086597 -0.539765 0.566181 153 76 0
-0.422367 0.431408 0.500340 127 0 127
-0.136529 0.180107 -0.311695 0 127 127
-0.431136 0.692002 0.327997 127 0 127
0.182334 -0.073162 0.533261 153 76 0
-0.453083 0.672308 0.243370 127 0 127
-0.455826 -0.023831 0.541551 153 0 76
-0.063949 -0.529444 0.211271 76 0 153
0.316061 -0.529444 -0.035526 76 0 153
-0.160616 0.634550 0.554423 127 127 0
0.164815 -0.221716 0.533261 153 76 0
0.446740 -0.348765 -0.469714 0 127 127
-0.293567 -0.560576 0.396093 76 153 0
0.240558 -0.276341 0.500340 153 76 0
-0.368039 -0.360994 0.074926 76 0 153
-0.335118 0.104558 0.198787 127 0 127
-0.198318 0.304933 -0.344616 0 127 127
0.278705 -0.529444 0.460950 76 0 153
0.194691 -0.408971 -0.311695 204 51 127
-0.097773 -0.477320 -0.002789 0 0 255
0.113820 -0.541516 0.533261 0 0 255
-0.431136 0.584243 0.488897 127 0 127
-0.118312 0.529495 0.323585 153 0 76
0.363497 -0.529444 -0.226081 76 0 153
-0.091993 -0.723268 0.396093 76 153 0
-0.368039 -0.214420 0.262821 76 0 153
0.446740 -0.684719 0.346489 0 127 127
-0.335118 -0.237349 0.048004 76 0 153
0.096114 0.665023 -0.520191 153 76 0
-0.089338 -0.382825 -0.470810 153 0 76
0.110756 -0.023685 0.533261 0 255 0
-0.431136 0.124407 0.003428 127 0 127
-0.306455 -0.568501 0.500340 0 0 255
0.299433 -0.100097 0.566181 153 76 0
0.178090 0.529495 -0.205541 153 0 76
0.315672 0.332423 -0.470810 153 0 76
-0.288632 -0.640355 -0.520191 127 0 127
0.271430 -0.201880 -0.470810 153 0 76
-0.431136 0.069563 -0.003281 127 0 127
0.424793 0.177150 0.191558 0 127 127
-0.453083 -0.272174 -0.104093 127 0 127
0.104962 0.556634 -0.344616 76 153 0
0.424793 0.618463 0.164775 0 127 127
0.446740 0.506559 0.429418 0 127 127
-0.066592 0.586105 0.500340 127 127 0
-0.365191 0.499317 -0.343912 0 127 127
-0.213119 -0.560094 0.566181 153 76 0
0.218093 0.005512 0.408947 76 153 0
-0.444950 0.645869 0.562654 127 127 0
0.328775 -0.470817 0.355456 153 0 76
0.353712 -0.562841 -0.520191 127 0 127
-0.431136 0.399310 0.090434 127 0 127
-0.354946 -0.094921 0.533261 153 76 0
-0.165175 0.141875 0.533261 0 255 0
0.049702 0.521264 -0.077219 153 0 76
0.328775 0.145083 0.261942 127 127 0
0.424793 0.047419 -0.201611 0 127 127
-0.421793 0.022734 -0.470810 127 0 127
0.406455 -0.446674 -0.470810 153 0 76
0.345876 -0.051648 0.533261 153 76 0
-0.368039 0.526740 -0.065937 0 127 127
0.230041 0.670018 0.500340 255 0 0
0.170912 -0.040434 -0.470810 153 0 76
-0.431136 -0.506930 -0.408523 127 0 127
-0.453083 -0.497474 0.406283 127 0 127
-0.453083 0.686953 -0.149247 127 0 127
0.380362 0.677636 -0.406469 255 0 0
0.446740 -0.012067 0.320035 0 127 127
0.259882 0.134778 0.533261 0 255 0
-0.453083 -0.210178 0.282258 127 0 127
-0.335118 -0.001623 0.281706 127 0 127
-0.431136 -0.101920 0.048888 127 0 127
0.446740 -0.349796 -0.354329 0 127 127
-0.432214 -0.211136 0.533261 153 0 76
0.341744 -0.529444 -0.374398 76 0 153
-0.368039 -0.194012 0.460065 76 0 153
0.263267 0.042949 0.500340 0 255 0
-0.368039 0.148422 0.182415 127 0 127
-0.453083 -0.779378 0.219146 153 0 76
0.291519 -0.477320 0.399934 0 0 255
0.144791 -0.499267 0.528712 153 76 0
0.361696 0.194942 -0.188953 127 127 0
-0.387495 0.704802 0.500340 255 0 0
0.418467 0.699583 0.041852 0 127 127
0.055947 -0.204426 -0.344616 204 51 127
0.446740 -0.478792 -0.213767 0 127 127
0.416780 -0.083303 0.500340 204 51 127
-0.336380 0.630999 -0.083553 0 127 127
0.223167 0.732503 -0.497620 153 76 0
0.446740 -0.442479 0.223789 0 127 127
-0.464057 0.592145 0.509697 153 0 76
0.424793 -0.507705 -0.325679 0 127 127
-0.388360 0.677636 0.366859 0 255 0
0.424793 0.097908 0.364793 0 127 127
0.225453 0.013742 -0.265472 76 153 0
-0.309030 -0.477320 -0.252764 0 0 255
-0.067692 0.381353 0.501009 127 127 0
-0.430778 -0.529444 -0.150433 127 0 127
0.446740 -0.537934 0.164941 0 127 127
0.356146 0.280421 0.560482 0 255 0
0.309378 -0.749006 -0.520191 127 0 127
0.253757 -0.365197 0.500340 153 76 0
-0.285066 0.649689 -0.470810 153 0 76
0.296557 -0.477320 -0.131612 0 0 255
0.424793 -0.108391 -0.148215 0 127 127
0.361696 -0.301257 -0.262254 153 0 76
0.328775 -0.370615 0.445239 153 0 76
0.208318 -0.469090 0.083497 0 0 255
-0.368039 -0.358770 0.398165 76 0 153
-0.431136 0.110451 0.415771 127 0 127
-0.368039 -0.269464 0.226872 76 0 153
-0.364760 -0.529444 0.217954 76 0 153
-0.431136 -0.319895 -0.077099 127 0 127
0.446740 0.209399 0.260947 0 127 127
0.133297 0.013742 0.129457 76 153 0
-0.087842 -0.297849 0.566181 153 76 0
-0.156058 -0.403877 0.566181 153 76 0
0.361696 0.321768 0.098600 127 127 0
-0.114615 0.205755 0.566181 0 255 0
0.333661 0.411062 0.500340 127 127 0
0.310971 -0.469090 -0.046425 0 0 255
0.424793 0.112001 -0.282279 0 127 127
-0.248814 -0.469090 0.216283 0 0 255
0.087295 0.728298 0.500340 255 0 0
0.002285 0.149969 0.533261 0 255 0
0.424793 -0.185524 -0.177139 0 127 127
-0.368039 0.619623 0.118235 0 127 127
-0.453083 0.064485 -0.261760 127 0 127
0.288147 -0.164246 -0.344616 204 51 127
0.344330 -0.245081 -0.344616 153 0 76
0.446740 0.573543 0.181593 0 127 127
-0.368039 -0.495655 0.170967 76 0 153
0.042732 -0.728475 0.396093 76 153 0
-0.176597 0.732503 -0.492814 153 76 0
-0.335118 0.166706 0.161834 127 0 127
-0.453083 0.204988 0.193447 127 0 127
0.131789 0.539842 -0.311695 153 0 76
0.068220 0.342745 0.533261 0 255 0
0.086953 -0.529444 0.451669 76 0 153
0.041781 -0.497159 -0.311695 204 51 127
-0.081815 0.592852 -0.311695 76 153 0
-0.368039 0.074858 0.444735 127 0 127
-0.012003 -0.529444 -0.158850 76 0 153
0.427419 0.276394 0.533261 204 51 127
-0.453083 0.264210 0.311230 127 0 127
-0.365355 -0.148116 0.441767 76 0 153
0.434335 -0.585534 -0.520191 0 127 127
0.328775 0.095419 -0.340709 0 127 127
-0.368039 0.290787 0.368497 127 0 127
-0.453083 -0.244256 0.484095 127 0 127
-0.282440 -0.499267 0.508422 0 0 255
-0.335118 -0.417713 -0.054707 76 0 153
-0.195763 0.251830 0.533261 0 255 0
-0.453083 -0.430157 -0.338271 127 0 127
0.337340 -0.485447 0.562467 153 76 0
-0.086495 -0.495336 0.533261 153 76 0
-0.221979 0.529495 -0.089020 153 0 76
0.328775 -0.176921 0.471211 153 0 76
0.021859 0.521264 -0.135657 153 0 76
-0.431136 -0.251551 -0.512694 127 0 127
0.361696 0.263068 0.134736 127 127 0
0.410369 0.692512 0.566181 127 127 0
0.441105 0.012449 0.533261 0 255 0
0.361696 0.250591 0.084795 127 127 0
-0.359345 0.609648 -0.344616 0 127 127
0.201821 -0.435723 -0.470810 153 0 76
0.328775 0.524086 0.497081 153 0 76
-0.358006 0.630999 -0.277288 0 127 127
0.322987 0.677636 0.294613 255 0 0
-0.453083 0.434885 -0.415241 127 0 127
-0.431136 0.713887 0.182236 127 0 127
-0.453083 -0.689418 -0.392899 153 0 76
-0.368039 0.115952 0.449187 127 0 127
-0.071252 -0.469090 -0.141958 0 0 255
-0.156478 -0.469090 0.274741 0 0 255
-0.453083 -0.653162 -0.362939 153 0 76
-0.368039 -0.262012 0.454062 76 0 153
-0.453083 0.468822 -0.112625 127 0 127
0.361696 -0.227989 0.042816 153 0 76
0.446740 -0.564487 -0.070645 0 127 127
-0.198459 0.618801 0.500340 127 127 0
-0.226342 -0.738571 0.396093 76 153 0
0.247423 -0.529444 0.032285 76 0 153
0.325947 0.216994 -0.487270 153 0 76
0.068979 0.238725 0.566181 0 255 0
-0.453083 0.215127 0.048499 127 0 127
0.166070 -0.469090 0.181741 0 0 255
-0.298281 0.529495 -0.207224 153 0 76
-0.114694 0.013742 0.419742 76 153 0
0.446740 -0.255559 -0.022669 0 127 127
0.446740 0.070260 -0.401487 0 127 127
0.361696 -0.478230 0.397060 153 0 76
0.446740 -0.126157 0.312593 0 127 127
0.310755 -0.499267 -0.313775 204 51 127
-0.155807 0.164703 0.500340 0 255 0
0.328775 0.121094 0.064485 127 127 0
-0.099878 0.154086 0.533261 0 255 0
0.269326 0.442967 0.566181 127 127 0
-0.263737 -0.086183 0.500340 153 76 0
-0.163219 -0.546417 -0.470810 153 0 76
0.089632 -0.362100 0.500340 153 76 0
-0.034037 -0.181446 -0.311695 204 51 127
-0.335118 0.146353 -0.150253 127 0 127
-0.142496 -0.215581 -0.311695 204 51 127
0.424793 -0.117581 -0.355681 0 127 127
0.391873 -0.233781 0.510223 204 51 127
-0.148216 -0.271058 0.533261 153 76 0
-0.285332 -0.171721 0.533261 153 76 0
-0.324186 0.493311 0.555595 127 127 0
0.361696 0.045592 0.350567 127 127 0
0.361696 0.256659 -0.050588 127 127 0
-0.098194 -0.477320 0.466254 0 0 255
0.384412 0.706112 0.500340 204 51 127
0.061793 -0.477320 0.093103 0 0 255
0.446740 -0.697449 -0.068210 0 127 127
0.371822 -0.529444 -0.105835 76 0 153
-0.081408 0.271526 0.555942 0 255 0
-0.431136 0.031676 0.470692 127 0 127
-0.130215 0.387719 0.533261 0 255 0
0.293112 0.693332 0.279556 255 0 0
-0.431136 -0.322234 0.398096 127 0 127
0.446740 -0.537459 -0.452550 0 127 127
-0.077222 -0.569888 0.533261 0 0 255
-0.453083 0.043859 -0.410142 127 0 127
-0.453083 0.644226 0.371549 127 0 127
-0.368039 -0.427962 0.082670 76 0 153
-0.431136 0.255869 0.060894 127 0 127
-0.355732 -0.551194 -0.470810 153 0 76
0.446740 0.354504 0.266824 0 127 127
0.328775 0.286961 -0.069231 127 127 0
-0.308703 -0.477320 0.322563 0 0 255
0.331531 0.334716 -0.017894 127 127 0
0.361696 -0.457476 0.193328 153 0 76
-0.268683 -0.588793 0.396093 76 153 0
-0.431136 0.058635 0.070142 127 0 127
0.076357 -0.076165 0.500340 153 76 0
0.199076 0.325742 0.500340 0 255 0
0.328775 0.296441 0.354962 0 0 255
-0.453083 0.316277 0.422576 127 0 127
0.446740 -0.207953 0.437069 0 127 127
-0.328786 0.263372 0.555378 0 255 0
0.301457 0.672278 0.566181 127 127 0
0.386112 -0.529444 0.412517 76 0 153
0.424793 0.456077 -0.194994 0 127 127
-0.306452 -0.352595 0.500340 153 76 0
-0.335118 0.541497 -0.025970 153 0 76
-0.368039 0.204080 0.478123 127 0 127
0.197508 0.675072 -0.470810 153 0 76
0.457714 -0.260789 0.523138 204 51 127
0.446740 -0.057286 -0.120282 0 127 127
0.169691 -0.148116 -0.312245 204 51 127
0.122731 -0.282967 0.533261 153 76 0
-0.421949 0.281744 0.500340 153 0 76
-0.373296 0.013433 0.566181 0 255 0
-0.114759 -0.161559 -0.311695 204 51 127
-0.209222 -0.039294 -0.470810 153 0 76
0.449483 -0.137846 0.538719 204 51 127
-0.368039 0.517572 0.149140 0 127 127
-0.453083 -0.223580 -0.010562 127 0 127
0.424793 -0.281699 0.400178 0 127 127
-0.449981 -0.378347 0.560136 153 76 0
-0.335118 0.323703 0.377692 127 0 127
-0.038931 0.631311 0.533261 127 127 0
0.008876 0.013742 -0.268624 76 153 0
-0.257249 -0.477320 0.376662 0 0 255
0.233674 -0.529444 0.294886 76 0 153
0.424793 0.184941 0.324853 0 127 127
-0.239144 0.228766 -0.344616 0 127 127
0.010028 0.091021 0.533261 0 255 0
-0.307552 0.699583 0.345398 0 255 0
0.139995 -0.471132 -0.311695 0 0 255
0.424793 -0.395605 0.415269 0 127 127
-0.428428 -0.429323 0.533261 153 76 0
-0.431136 0.247832 -0.195899 127 0 127
-0.122432 0.414118 0.500340 127 127 0
0.053621 0.458701 0.566181 127 127 0
0.424793 0.531965 0.276450 0 127 127
-0.064076 -0.239602 0.566181 153 76 0
0.376772 0.322713 0.533261 0 255 0
-0.327627 0.677636 0.297832 0 255 0
-0.431136 -0.047126 -0.058002 127 0 127
-0.368039 0.260466 0.124908 127 0 127
-0.286265 0.360834 0.533261 0 255 0
0.328775 0.308856 0.218202 127 127 0
-0.431136 -0.201236 -0.422588 127 0 127
-0.431136 0.219742 0.106993 127 0 127
0.424793 -0.562778 0.364610 0 127 127
0.273345 0.669197 -0.487270 153 0 76
-0.053463 -0.035638 0.527612 153 76 0
0.361696 0.160929 0.363572 127 127 0
0.032280 -0.458961 -0.311695 0 0 255
0.184354 -0.512360 0.566181 153 76 0
0.446740 0.600402 0.356064 0 127 127
-0.239881 0.024095 -0.487270 153 0 76
-0.453083 -0.170520 0.197855 127 0 127
0.120472 0.610686 0.533261 127 127 0
-0.146266 0.521264 0.139088 153 0 76
0.138299 0.027657 0.565748 0 255 0
0.446740 0.376179 0.109201 0 127 127
-0.426720 0.546869 0.533261 127 127 0
-0.431136 -0.063464 -0.436659 127 0 127
-0.368039 -0.188913 -0.321749 76 0 153
-0.431136 0.650371 -0.068616 127 0 127
0.424793 0.703810 -0.404226 0 127 127
0.196202 0.143302 -0.487270 153 0 76
0.010484 0.666663 0.532327 255 0 0
-0.335118 -0.223420 -0.264842 76 0 153
-0.335118 -0.246550 -0.215761 76 0 153
0.042475 0.653423 -0.520191 153 76 0
-0.027784 0.151016 0.566181 0 255 0
0.140404 -0.672683 -0.520191 127 0 127
0.395851 -0.227933 -0.470810 153 0 76
0.424793 -0.347275 0.381336 0 127 127
0.361696 0.241096 0.051913 127 127 0
-0.156461 -0.401582 -0.344616 204 51 127
-0.209031 -0.529444 0.267580 76 0 153
-0.453083 0.284096 -0.401448 127 0 127
0.424793 0.649983 -0.398464 0 127 127
0.039283 0.529495 0.397436 153 0 76
0.378815 0.677636 -0.065520 255 0 0
0.322278 0.666663 0.518882 127 127 0
0.446740 0.395417 0.052197 0 127 127
0.446740 0.525848 -0.111463 0 127 127
-0.397177 0.677636 0.141797 0 255 0
-0.211927 -0.382257 0.533261 153 76 0
0.042363 0.072918 0.555846 0 255 0
-0.259939 -0.011711 -0.344616 0 127 127
0.143818 0.005512 -0.237867 76 153 0
-0.453083 -0.344474 0.077685 127 0 127
0.374684 -0.515108 -0.470810 153 0 76
-0.453083 -0.227201 0.050908 127 0 127
0.260472 -0.139080 -0.470810 153 0 76
-0.329980 -0.101479 0.508653 153 76 0
-0.431136 0.404521 0.336920 127 0 127
0.204272 -0.208326 -0.487270 153 0 76
-0.335118 -0.170668 0.255567 76 0 153
-0.453083 -0.743520 0.339338 153 0 76
0.328775 0.329956 0.297905 127 127 0
0.424793 0.217230 -0.043123 0 127 127
-0.135380 -0.529444 0.299357 76 0 153
0.446740 -0.645666 0.236769 0 127 127
0.316931 0.677636 -0.371157 255 0 0
-0.221871 0.013742 0.444822 76 153 0
-0.336322 0.499317 -0.013671 0 127 127
0.391873 0.030497 0.502817 204 51 127
-0.431136 0.215821 0.395709 127 0 127
-0.398216 -0.353441 0.505540 153 0 76
-0.186678 -0.092531 0.500340 153 76 0
0.289155 -0.421498 0.500340 153 76 0
-0.368039 0.510028 0.452492 0 127 127
-0.368039 0.129064 0.292874 127 0 127
0.024920 -0.555676 0.396093 76 153 0
-0.453083 0.579512 -0.110193 127 0 127
0.361696 -0.258364 0.238122 153 0 76
0.278430 -0.584276 0.500340 0 0 255
-0.242965 0.008052 0.566181 0 255 0
-0.431136 -0.279693 0.322082 127 0 127
0.424793 0.547539 -0.228134 0 127 127
-0.265907 -0.529444 -0.151636 76 0 153
0.241601 0.005512 0.493981 0 255 0
-0.046519 -0.531272 -0.520191 127 0 127
-0.298646 0.114061 -0.487270 153 0 76
0.424793 -0.576461 0.212912 0 127 127
-0.335236 0.499317 -0.109299 153 0 76
0.361696 -0.357698 -0.080552 153 0 76
-0.190783 0.693485 0.566181 127 127 0
-0.198359 0.078855 -0.311695 0 127 127
0.446740 0.303231 -0.012163 0 127 127
0.013632 0.600822 -0.500252 153 76 0
0.361696 0.075707 0.531855 127 127 0
0.330671 -0.499267 0.104263 153 0 76
-0.236434 0.120689 0.533261 0 255 0
-0.431136 -0.036490 -0.499507 127 0 127
0.073778 -0.267705 -0.344616 204 51 127
0.391873 -0.294150 0.502795 204 51 127
0.446740 -0.743261 -0.331113 0 127 127
-0.266520 0.141919 0.533261 0 255 0
-0.216344 0.013742 0.124862 76 153 0
0.361696 0.012202 0.411929 127 127 0
0.446740 -0.431195 -0.398997 0 127 127
-0.284970 -0.287736 -0.311695 204 51 127
-0.425965 0.690719 -0.520191 127 0 127
-0.335118 -0.365954 0.452958 76 0 153
-0.453083 0.433753 0.320084 127 0 127
0.446740 -0.183185 -0.055052 0 127 127
0.328775 0.053215 0.041681 127 127 0
0.446740 -0.673101 -0.328367 0 127 127
0.328775 -0.380192 0.258259 153 0 76
0.005433 -0.297588 0.566181 153 76 0
0.240843 -0.558178 0.396093 76 153 0
-0.034215 -0.469090 0.051109 0 0 255
-0.355245 -0.499267 -0.257835 76 0 153
-0.280224 -0.285240 0.566181 153 76 0
0.017621 -0.393149 -0.311695 204 51 127
0.457714 -0.522004 0.517942 204 51 127
-0.427307 0.677636 0.451267 0 255 0
-0.431136 -0.123840 0.455168 127 0 127
0.110317 0.332557 -0.311695 0 127 127
-0.019736 -0.685297 0.396093 76 153 0
-0.051365 0.366727 -0.470810 153 0 76
0.395149 0.164369 0.566181 0 255 0
0.131824 0.521264 0.496016 153 0 76
-0.064488 0.005512 0.197147 76 153 0
-0.368039 0.607296 0.367779 0 127 127
0.446740 0.324451 -0.114114 0 127 127
0.294247 -0.529444 -0.427335 76 0 153
-0.368039 -0.266964 -0.061371 76 0 153
0.083646 -0.477320 -0.079544 0 0 255
0.140960 -0.100574 -0.487270 153 0 76
0.424793 -0.238288 0.188504 0 127 127
-0.453083 -0.116329 0.483130 127 0 127
0.183039 -0.529444 0.331485 76 0 153
0.069323 -0.477320 -0.048588 0 0 255
-0.431136 0.011315 -0.359007 127 0 127
0.424793 0.272427 -0.290953 0 127 127
0.066643 0.690501 0.500340 255 0 0
-0.099485 -0.043750 0.533261 153 76 0
0.163862 0.521264 0.174706 153 0 76
0.100342 -0.477320 0.446111 0 0 255
-0.453083 0.611676 0.175792 127 0 127
-0.335118 0.298123 0.016810 127 0 127
0.361696 0.511338 0.440681 127 0 127
-0.242963 0.013742 -0.073588 76 153 0
-0.368039 0.001051 0.246341 127 0 127
-0.453083 0.700132 0.082573 127 0 127
0.279439 0.560892 0.566181 127 127 0
-0.059270 -0.422126 0.565473 153 76 0
0.333338 0.499317 0.137491 127 0 127
0.127865 0.537386 -0.470810 153 0 76
0.424793 0.586578 -0.280074 0 127 127
-0.259890 -0.267971 0.533261 153 76 0
0.328775 -0.186006 -0.127319 153 0 76
0.244885 -0.477320 -0.249453 0 0 255
-0.431136 0.354757 -0.236520 127 0 127
-0.453083 -0.455980 0.166299 127 0 127
-0.129500 -0.529444 0.455355 76 0 153
-0.341262 0.604307 -0.487270 153 0 76
0.360624 -0.605115 -0.520191 127 0 127
-0.453083 0.371565 0.098591 127 0 127
0.361696 0.108607 -0.235864 127 127 0
0.188843 -0.529444 0.418017 76 0 153
-0.317196 0.696341 -0.487270 0 255 0
0.361696 -0.308852 0.412155 153 0 76
-0.042898 0.659943 0.562890 127 127 0
-0.431136 -0.578883 -0.182975 127 0 127
0.424793 0.673793 0.498303 0 127 127
0.424793 0.279516 0.478794 0 127 127
0.331081 0.677636 -0.208266 255 0 0
-0.453083 -0.044227 -0.380525 127 0 127
-0.034300 0.705523 0.566181 127 127 0
-0.205021 -0.469090 -0.091176 0 0 255
0.446740 0.074242 0.055401 0 127 127
0.253456 -0.251592 -0.470810 153 0 76
-0.177103 -0.266075 -0.311695 204 51 127
0.424793 0.358386 0.496749 204 51 127
0.446740 0.007969 0.280500 0 127 127
0.307980 0.623342 -0.487270 153 0 76
-0.373001 -0.230300 -0.470810 153 0 76
0.328775 -0.156200 0.106274 153 0 76
-0.368039 0.201325 0.269142 127 0 127
0.117383 -0.628007 0.396093 76 153 0
0.025956 -0.390683 0.500340 153 76 0
-0.453083 0.313637 -0.433418 127 0 127
-0.170882 -0.329087 0.500340 153 76 0
-0.381024 0.699583 -0.424840 0 255 0
0.390394 -0.529444 0.153414 76 0 153
-0.453083 -0.512069 -0.361094 127 0 127
-0.453083 -0.444752 -0.237815 127 0 127
0.137317 -0.000368 0.500340 0 255 0
-0.289408 -0.529444 0.211804 76 0 153
0.118350 0.176854 0.566181 0 255 0
-0.213911 -0.499267 0.506227 153 76 0
-0.073685 0.357158 0.566181 0 255 0
0.279727 -0.477320 0.215840 0 0 255
-0.387112 -0.083283 -0.487270 153 0 76
-0.431136 0.599187 0.127369 127 0 127
-0.163759 0.098924 0.566181 0 255 0
0.293109 -0.322074 0.566181 153 76 0
0.446740 0.329171 0.130353 0 127 127
-0.206722 -0.257059 0.566181 153 76 0
0.447292 0.323162 0.533774 204 51 127
-0.335118 0.100379 -0.337336 0 127 127
0.121050 -0.529444 0.109130 76 0 153
-0.133550 0.244434 -0.311695 0 127 127
-0.335118 0.059279 0.524662 127 0 127
0.446740 0.605255 -0.013941 0 127 127
-0.190926 0.005512 0.356173 76 153 0
-0.437000 0.474839 0.533261 153 0 76
-0.335118 -0.445008 0.221636 76 0 153
-0.453083 -0.284493 -0.049490 127 0 127
-0.431136 0.562544 -0.320304 127 0 127
0.227571 0.448929 0.533261 127 127 0
-0.431136 0.328307 -0.195674 127 0 127
-0.001730 0.499317 -0.313299 76 153 0
0.074592 0.230076 -0.470810 153 0 76
-0.368039 0.206329 0.149337 127 0 127
0.323429 0.001375 -0.344616 127 127 0
-0.399611 0.291718 -0.487270 153 0 76
0.155023 -0.469090 0.070743 0 0 255
0.361696 -0.498607 0.044705 153 0 76
-0.401787 0.699583 -0.364680 0 255 0
-0.417897 0.200010 0.566181 0 255 0
0.331354 0.334716 -0.181491 127 127 0
0.216124 0.529291 0.500340 153 0 76
-0.353387 -0.529444 0.481437 76 0 153
-0.272075 0.521264 -0.187027 153 0 76
0.446740 -0.018401 0.469739 0 127 127
0.424793 -0.128505 -0.041047 0 127 127
0.074563 -0.241452 0.533261 153 76 0
0.022397 -0.227118 -0.344616 204 51 127
-0.453083 0.548364 -0.180153 127 0 127
0.092986 -0.191028 0.554412 153 76 0
-0.210827 0.165708 -0.311695 0 127 127
0.361696 -0.363820 -0.149535 153 0 76
-0.150660 -0.477320 0.128553 0 0 255
0.054981 0.334716 -0.339890 0 127 127
0.257703 0.542322 -0.311695 153 0 76
-0.335118 0.500645 -0.243955 0 127 127
0.069092 -0.529444 -0.239654 76 0 153
-0.341358 0.499317 0.342371 0 127 127
0.214678 -0.696317 0.396093 76 153 0
0.446740 -0.424071 -0.012421 0 127 127
0.328775 -0.216381 -0.030334 153 0 76
-0.368039 -0.451787 -0.279259 76 0 153
-0.359107 -0.399933 0.533261 153 76 0
-0.002936 0.254150 -0.311695 0 127 127
-0.431136 -0.321791 -0.003388 127 0 127
0.009722 0.565742 0.500340 127 127 0
-0.028525 -0.159152 0.533261 153 76 0
0.295887 0.529495 0.314646 153 0 76
-0.368276 -0.731323 0.396093 76 153 0
-0.271692 0.515597 0.533261 127 127 0
0.316434 -0.529444 0.443217 76 0 153
0.328775 0.279783 -0.161606 127 127 0
-0.329783 -0.016435 -0.317297 0 127 127
0.457714 0.111277 0.501010 0 127 127
0.157933 0.639064 -0.487270 153 0 76
-0.131741 -0.552272 0.533261 153 76 0
0.313072 0.447194 0.532642 127 127 0
-0.431136 0.179746 0.097610 127 0 127
-0.017479 0.584670 -0.487270 153 0 76
0.328775 -0.179323 -0.207086 153 0 76
-0.453083 -0.734815 -0.444867 153 0 76
0.373184 0.699583 0.311098 255 0 0
-0.305367 0.328447 -0.311695 0 127 127
-0.453083 0.211997 0.433416 127 0 127
-0.034891 0.005512 -0.144224 76 153 0
-0.453083 0.485152 -0.174368 127 0 127
-0.207926 -0.671895 -0.520191 127 0 127
-0.428437 0.129179 -0.487270 127 0 127
-0.151746 0.263780 -0.487270 153 0 76
0.338468 -0.337609 -0.470810 153 0 76
0.413747 0.437550 0.566181 127 127 0
0.230462 -0.126994 0.566181 153 76 0
0.265964 -0.422614 0.564660 153 76 0
0.328775 0.322907 0.442012 127 127 0
-0.029854 0.467758 0.566181 127 127 0
-0.431136 0.228192 0.331415 127 0 127
-0.453083 0.036193 -0.049553 127 0 127
-0.335118 -0.216575 0.229188 76 0 153
0.263699 0.191207 -0.487270 153 0 76
0.226096 -0.397705 0.533261 153 76 0
0.286886 0.381298 -0.487270 153 0 76
0.424793 -0.565289 0.072540 0 127 127
0.424793 -0.201745 0.047520 0 127 127
0.393150 -0.553524 0.533261 0 0 255
0.090404 -0.408581 -0.311695 204 51 127
0.160463 0.081504 -0.311695 0 127 127
0.334567 -0.499267 0.159713 153 0 76
0.174043 0.002138 -0.344616 0 127 127
-0.021484 -0.615758 0.396093 76 153 0
0.417520 -0.529444 0.358713 0 127 127
-0.267252 0.418029 0.500340 127 127 0
0.329088 -0.529444 0.252981 76 0 153
0.318058 0.013742 -0.083419 76 153 0
-0.132597 -0.477320 -0.176657 0 0 255
0.446740 0.046135 -0.358654 0 127 127
-0.286868 -0.307530 0.533261 153 76 0
0.424793 -0.520979 0.400331 0 127 127
0.318642 -0.373850 -0.487270 153 0 76
-0.368039 0.190565 0.186871 127 0 127
-0.431136 -0.460757 -0.013639 127 0 127
-0.006283 -0.203486 0.500340 153 76 0
-0.335118 0.017923 0.045649 76 153 0
0.424793 -0.108220 -0.458620 0 127 127
-0.359613 0.218931 0.553682 0 255 0
-0.431136 -0.476552 -0.313792 127 0 127
0.290701 -0.385616 -0.344616 204 51 127
-0.266179 -0.305104 -0.470810 153 0 76
-0.421966 0.699583 -0.396740 127 0 127
-0.091772 -0.006151 0.566181 0 255 0
0.034555 0.521264 0.191279 153 0 76
-0.453083 0.653415 -0.237122 127 0 127
-0.453083 0.186253 -0.220398 127 0 127
-0.309924 0.005512 0.244443 76 153 0
-0.142375 -0.246658 0.566181 153 76 0
-0.272716 0.499317 -0.331178 76 153 0
-0.368039 0.178007 -0.179772 127 0 127
0.424793 0.095735 -0.399601 0 127 127
0.382334 -0.529444 0.367654 76 0 153
-0.286994 0.174429 -0.487270 153 0 76
-0.431136 0.560516 -0.501857 127 0 127
0.259663 -0.246541 0.533261 153 76 0
-0.431136 -0.579091 -0.493381 127 0 127
-0.283735 -0.469090 0.247542 0 0 255
0.446740 0.606575 -0.260259 0 127 127
0.424793 0.670780 0.184318 255 0 0
-0.431136 0.355518 0.155557 127 0 127
0.048928 -0.101479 0.504575 153 76 0
-0.453083 0.216682 -0.364972 127 0 127
0.328775 0.511548 -0.077353 127 0 127
0.424793 0.596432 -0.351851 0 127 127
-0.132922 0.529495 0.201963 153 0 76
-0.453083 0.072047 0.047739 127 0 127
0.351869 -0.499267 -0.201515 153 0 76
-0.229482 -0.202186 -0.344616 204 51 127
0.424793 -0.554136 -0.390311 0 127 127
0.090134 0.654746 0.533261 127 127 0
0.389149 -0.262570 0.533261 153 76 0
-0.453083 -0.615035 -0.289659 153 0 76
-0.453083 0.633281 -0.154741 127 0 127
-0.453083 -0.196793 0.393320 127 0 127
0.243937 0.229958 0.566181 0 255 0
-0.431136 -0.179864 0.068942 127 0 127
0.446740 -0.076917 0.301828 0 127 127
0.036248 0.604888 0.533261 127 127 0
0.282967 0.013742 -0.032507 76 153 0
0.082011 -0.426466 -0.487270 153 0 76
-0.453083 0.502232 0.103614 127 0 127
0.424793 -0.307667 0.236655 0 127 127
-0.431136 0.729316 0.124479 127 0 127
0.137658 -0.548275 -0.487270 153 0 76
-0.330107 0.529495 0.495092 127 127 0
0.424793 0.580558 -0.390181 0 127 127
-0.008866 0.005512 -0.035525 76 153 0
0.424793 -0.517543 -0.007247 0 127 127
0.247444 0.629403 -0.344616 76 153 0
0.361696 0.629768 -0.228012 127 0 127
-0.335118 -0.179434 -0.232115 76 0 153
-0.431136 -0.104825 0.313695 127 0 127
-0.431136 0.269912 -0.144632 127 0 127
0.294903 -0.529444 -0.290839 76 0 153
-0.368039 -0.154274 0.038477 76 0 153
-0.360802 0.389735 -0.470810 153 0 76
0.328775 0.036875 -0.297786 127 127 0
-0.245496 -0.477320 0.343312 0 0 255
0.446740 0.486324 -0.143143 0 127 127
0.169767 0.693842 0.500340 255 0 0
-0.035031 -0.454061 0.554999 153 76 0
0.424793 0.616688 -0.443483 0 127 127
0.328775 -0.267098 0.363847 153 0 76
-0.431136 -0.017667 0.335718 127 0 127
0.359495 -0.499267 -0.002085 153 0 76
0.361696 -0.167123 0.385219 153 0 76
0.320949 -0.529444 0.115293 153 0 76
0.424793 0.026664 0.443256 0 127 127
-0.236022 -0.529444 -0.007329 76 0 153
0.329979 0.499317 0.214985 153 0 76
0.205047 0.083926 -0.344616 0 127 127
0.270833 -0.423095 -0.311695 204 51 127
0.361696 0.597016 0.440892 127 0 127
0.446740 0.345236 -0.178279 0 127 127
-0.074730 0.513502 0.500340 127 127 0
-0.020248 0.567776 0.566181 127 127 0
0.077536 0.514029 0.533261 127 127 0
-0.431136 -0.219539 0.207542 127 0 127
0.328775 -0.306177 0.284979 153 0 76
-0.325368 0.283987 -0.470810 153 0 76
0.256791 0.134882 -0.311695 0 127 127
0.424793 -0.057118 -0.327692 0 127 127
0.370458 -0.099325 0.500340 204 51 127
0.021732 0.598433 -0.311695 76 153 0
-0.373395 -0.142360 0.533261 76 0 153
-0.396676 -0.401185 -0.487270 153 0 76
-0.335118 0.015701 -0.070042 127 0 127
-0.165460 0.239811 -0.344616 0 127 127
-0.239386 -0.343704 0.500340 153 76 0
-0.073369 -0.563475 0.396093 76 153 0
-0.241013 0.481046 0.566181 127 127 0
-0.292867 -0.358915 -0.311695 204 51 127
-0.118471 -0.396623 -0.487270 153 0 76
-0.431136 -0.110356 0.180337 127 0 127
0.328775 0.505182 0.070858 127 0 127
0.216094 0.090715 -0.470810 153 0 76
0.255245 0.613974 0.533261 127 127 0
0.361696 0.121183 -0.204800 127 127 0
-0.242064 -0.023746 -0.470810 153 0 76
-0.368039 -0.006271 0.179408 127 0 127
0.228260 0.251965 -0.470810 153 0 76
-0.431136 -0.197575 0.139055 127 0 127
0.391873 -0.003787 0.502076 204 51 127
0.361696 -0.274887 0.066783 153 0 76
0.227921 -0.306567 0.533261 153 76 0
0.286843 0.141668 0.500340 0 255 0
0.185663 0.013742 0.081535 76 153 0
-0.199123 -0.171103 -0.311695 204 51 127
0.049451 -0.357256 0.566181 153 76 0
0.424793 -0.538940 0.295626 0 127 127
0.424793 -0.003156 -0.030875 0 127 127
0.446740 -0.637933 -0.505793 0 127 127
0.116166 0.005512 0.470052 76 153 0
0.361696 0.102238 -0.099321 127 127 0
-0.180214 -0.218119 0.533261 153 76 0
-0.453083 -0.669754 0.081151 153 0 76
0.105459 -0.529444 0.205547 76 0 153
0.424945 0.732503 -0.365621 0 127 127
-0.252146 0.249696 -0.487270 153 0 76
0.430092 0.732503 0.379593 0 127 127
-0.335118 0.255761 0.346337 127 0 127
-0.265969 -0.227913 -0.344616 204 51 127
0.409882 -0.326701 0.533261 153 76 0
0.298730 0.013742 0.141005 76 153 0
0.112565 0.103549 0.500340 0 255 0
-0.037446 0.081383 -0.311695 0 127 127
-0.431136 0.419439 -0.160593 127 0 127
0.424793 0.579894 0.133893 0 127 127
0.446740 0.288008 -0.238158 0 127 127
-0.127384 0.009050 -0.470810 153 0 76
-0.206888 -0.584524 0.396093 76 153 0
-0.337614 0.588589 0.555648 127 127 0
0.247218 -0.053897 0.533261 153 76 0
0.276592 -0.487525 -0.311695 204 51 127
0.328775 0.087377 0.488874 127 127 0
-0.184286 0.526867 -0.470810 153 0 76
0.361696 -0.013240 0.184273 127 127 0
-0.453083 0.520483 -0.280788 127 0 127
0.424793 -0.237006 0.286939 0 127 127
-0.453083 0.621268 -0.317573 127 0 127
0.337543 0.720958 0.533261 127 127 0
-0.418363 -0.025005 -0.470810 153 0 76
-0.431136 0.524822 0.247202 127 0 127
-0.368039 -0.455183 0.175885 76 0 153
0.328775 0.092022 -0.191504 127 127 0
-0.000950 0.595921 0.533261 127 127 0
-0.415868 0.001868 0.566181 0 255 0
0.244012 0.584455 0.566181 127 127 0
0.424793 -0.391928 -0.380087 0 127 127
0.244520 -0.529444 -0.111796 76 0 153
0.446740 0.529886 -0.375910 0 127 127
-0.211339 -0.314199 -0.311695 204 51 127
0.310451 0.251239 -0.487270 153 0 76
-0.431136 0.565914 0.105103 127 0 127
-0.453083 0.500542 0.069221 127 0 127
0.424793 -0.460887 -0.158929 0 127 127
-0.036970 -0.243848 0.533261 153 76 0
0.072985 0.178420 -0.344616 0 127 127
-0.453083 0.395700 -0.309130 127 0 127
0.036343 -0.565334 -0.520191 127 0 127
-0.335118 -0.011891 0.409237 127 0 127
0.189697 0.602568 0.566181 127 127 0
-0.246129 -0.529444 0.350036 76 0 153
0.131107 -0.261316 -0.311695 204 51 127
-0.110337 0.280380 0.533261 0 255 0
-0.453083 -0.102723 0.396933 127 0 127
0.078211 0.410003 0.500340 127 127 0
0.185534 0.183158 -0.470810 153 0 76
0.424793 0.070505 0.250725 0 127 127
-0.313083 0.677636 -0.142427 0 255 0
0.392669 0.121232 -0.470810 153 0 76
0.247903 -0.477320 -0.013182 0 0 255
-0.335118 0.578733 0.460971 0 127 127
0.450286 -0.196635 0.500340 204 51 127
-0.301578 0.013742 0.042229 76 153 0
-0.368039 -0.256472 -0.273300 76 0 153
0.424793 -0.392956 0.365003 0 127 127
0.328775 -0.337763 0.424723 153 0 76
-0.125988 0.626032 0.500340 127 127 0
-0.254219 0.161937 0.500340 0 255 0
-0.304636 -0.004451 0.533261 0 255 0
0.133367 -0.529444 0.478654 76 0 153
-0.273775 0.332490 -0.344616 0 127 127
0.316276 -0.155118 0.533261 153 0 76
0.078337 0.603382 -0.344616 76 153 0
0.293190 0.148221 -0.344616 127 127 0
0.394635 0.553151 0.566181 127 127 0
0.328775 0.260196 -0.283810 127 127 0
-0.453083 -0.027150 -0.097496 127 0 127
-0.332531 0.630999 0.503379 0 127 127
0.328775 0.248545 0.500727 0 255 0
0.206713 0.503814 -0.311695 76 153 0
-0.295901 0.202161 -0.311695 0 127 127
-0.398513 -0.186879 0.533261 153 0 76
-0.052409 -0.336232 -0.487270 153 0 76
0.094254 0.197083 -0.470810 153 0 76
-0.340389 0.677636 -0.383891 0 255 0
-0.431136 -0.068205 0.031871 127 0 127
0.163193 -0.246306 -0.487270 153 0 76
0.217825 0.540115 -0.344616 76 153 0
-0.354391 0.630309 -0.520191 153 76 0
-0.453083 -0.411215 -0.270828 127 0 127
-0.398216 0.505336 0.514232 153 0 76
-0.453083 -0.539886 0.035706 127 0 127
-0.431136 0.486517 0.123478 127 0 127
-0.335118 -0.348934 -0.336101 204 51 127
0.208293 0.712991 -0.520191 153 76 0
-0.443582 0.162088 -0.520191 127 0 127
-0.431136 0.658425 -0.003574 127 0 127
0.328775 0.069995 -0.103785 127 127 0
0.446740 0.123999 -0.318561 0 127 127
-0.150429 -0.137240 0.566181 153 76 0
-0.045305 0.427807 0.533261 127 127 0
0.446740 0.647910 0.362778 0 127 127
-0.431136 0.671379 -0.490805 127 0 127
-0.368039 0.143835 0.127593 127 0 127
0.217012 0.259155 -0.311695 0 127 127
-0.430982 0.369961 0.533261 153 0 76
-0.266058 0.630999 0.508917 127 127 0
-0.186369 -0.573783 -0.520191 127 0 127
0.446740 -0.000647 0.436686 0 127 127
0.328775 -0.149598 0.006000 153 0 76
-0.276628 -0.529444 0.367146 76 0 153
0.424793 0.264054 0.216137 0 127 127
-0.298293 -0.529444 -0.241986 76 0 153
-0.335118 0.018124 -0.249060 127 0 127
0.243068 0.005512 -0.158341 76 153 0
-0.368039 0.090858 0.294826 127 0 127
0.172765 -0.469090 -0.167708 0 0 255
-0.224929 -0.529444 0.486668 76 0 153
-0.431136 -0.348258 0.150287 127 0 127
-0.222581 -0.400579 0.566181 153 76 0
0.016671 0.416523 -0.470810 153 0 76
0.368860 0.699583 -0.099592 255 0 0
0.322405 0.545407 0.533261 127 0 127
-0.157702 0.554779 0.566181 127 127 0
0.291766 -0.281934 -0.311695 204 51 127
0.361696 0.232557 0.234362 127 127 0
0.313484 0.699583 0.074501 255 0 0
-0.431136 -0.379965 0.403740 127 0 127
-0.203312 0.013742 -0.249657 76 153 0
-0.368039 0.600198 0.485288 0 127 127
0.268602 0.005512 0.377141 76 153 0
-0.414625 -0.597591 0.396093 76 153 0
-0.453083 0.233508 0.270940 127 0 127
0.446740 -0.241254 -0.219825 0 127 127
-0.431136 0.162944 -0.451443 127 0 127
-0.304779 0.677636 0.020673 0 255 0
-0.335118 0.071969 0.318950 127 0 127
0.385370 -0.529444 -0.167072 76 0 153
0.193244 -0.215594 -0.311695 204 51 127
0.268554 -0.155177 0.533261 153 76 0
-0.080428 -0.363072 0.500340 153 76 0
-0.047675 0.710970 -0.520191 153 76 0
0.331513 -0.254102 0.533261 153 76 0
0.446740 -0.507511 0.024089 0 127 127
-0.368039 0.048593 0.419240 127 0 127
-0.431136 0.089390 0.147746 127 0 127
0.424819 0.473922 0.533261 204 51 127
0.296779 0.521264 0.110488 153 0 76
0.446740 -0.212847 0.250294 0 127 127
-0.009694 -0.211263 -0.344616 204 51 127
0.276098 0.551171 0.500340 127 127 0
-0.335118 0.273289 0.383767 127 0 127
-0.453083 0.154427 -0.372284 127 0 127
-0.302944 0.582086 -0.487270 153 0 76
0.457714 0.583130 0.512674 0 127 127
-0.359555 -0.459198 0.550384 153 76 0
0.446740 -0.525133 0.116799 0 127 127
-0.122001 0.521264 -0.023418 153 0 76
-0.321586 0.529495 -0.276505 153 0 76
0.322755 0.630999 0.518830 127 127 0
-0.453083 0.492349 0.160937 127 0 127
-0.450434 0.079623 0.559771 0 255 0
-0.353804 -0.560905 0.396093 76 153 0
0.073467 -0.469090 -0.212014 0 0 255
0.446740 -0.339815 -0.283544 0 127 127
0.424793 0.040618 0.270319 0 127 127
0.328775 0.160501 0.518439 0 255 0
0.095096 -0.081710 -0.470810 153 0 76
0.446740 0.698894 -0.075643 0 127 127
0.041697 0.013742 -0.103147 76 153 0
-0.453083 -0.262714 -0.239023 127 0 127
-0.453083 0.111148 -0.259753 127 0 127
-0.453083 -0.236797 0.095019 127 0 127
0.086063 0.243084 -0.344616 0 127 127
0.361696 -0.307059 -0.315936 153 0 76
-0.207225 -0.140384 0.566181 153 76 0
-0.453083 -0.744487 -0.149427 153 0 76
-0.132383 0.521264 0.294366 153 0 76
0.386256 0.677636 0.125855 255 0 0
0.044979 0.359042 -0.487270 153 0 76
-0.041927 -0.284162 -0.311695 204 51 127
-0.129675 -0.477320 0.353759 0 0 255
-0.299497 -0.469090 0.151450 0 0 255
-0.368039 -0.013432 0.135141 127 0 127
-0.453083 0.372546 -0.387684 127 0 127
-0.368039 -0.413606 -0.308046 76 0 153
0.446740 0.701929 0.392926 0 127 127
0.271274 0.361976 0.566181 0 255 0
0.221285 -0.529444 0.482212 76 0 153
0.424793 -0.554121 0.261380 0 127 127
-0.167224 -0.318468 0.566181 153 76 0
-0.453083 -0.386235 -0.100818 127 0 127
0.361696 0.171241 0.205423 127 127 0
0.112206 0.395159 0.533261 127 127 0
-0.453083 0.340440 0.378174 127 0 127
-0.335118 0.272329 0.177298 127 0 127
-0.184978 -0.529444 -0.326133 76 0 153
0.361696 -0.170701 -0.264525 153 0 76
0.093933 0.307530 -0.487270 153 0 76
0.424793 0.697633 -0.035877 255 0 0
-0.431136 -0.471012 0.344453 127 0 127
-0.104839 0.532603 -0.487270 153 0 76
-0.252420 0.013742 0.256249 76 153 0
-0.109012 -0.469090 -0.252776 0 0 255
0.446740 0.085421 -0.293910 0 127 127
0.249359 -0.480208 0.500340 0 0 255
0.073869 0.163212 0.500340 0 255 0
0.328775 0.614118 0.456121 127 0 127
0.446740 0.676056 -0.395028 0 127 127
-0.043379 -0.216081 0.500340 153 76 0
-0.296347 0.633700 0.554731 127 127 0
0.227083 0.439227 -0.487270 153 0 76
0.293236 0.013742 0.310641 76 153 0
0.146130 -0.246322 0.500340 153 76 0
-0.228146 0.237505 0.500340 0 255 0
0.119476 0.111985 0.566181 0 255 0
-0.351683 0.686024 -0.487270 0 255 0
-0.267670 0.005512 0.399945 76 153 0
0.361696 -0.459401 -0.107181 153 0 76
-0.453083 -0.133302 0.367174 127 0 127
-0.453083 -0.690435 -0.271107 153 0 76
-0.095955 -0.529444 0.220718 76 0 153
0.067895 -0.529444 -0.315324 76 0 153
-0.386070 0.610346 -0.470810 153 0 76
-0.367060 -0.499267 0.416260 76 0 153
-0.453083 -0.742880 0.100047 153 0 76
-0.082231 0.005512 -0.021711 76 153 0
-0.368039 0.032467 0.187282 127 0 127
-0.368039 -0.493118 0.033952 76 0 153
0.446740 0.239747 0.473367 0 127 127
-0.432776 -0.501070 0.500340 153 0 76
-0.092375 0.550841 0.566181 127 127 0
-0.082048 0.082778 0.533261 0 255 0
0.035239 0.521264 0.146937 153 0 76
-0.335118 0.505186 0.310477 0 127 127
0.361696 0.120006 0.157114 127 127 0
0.446740 0.329297 -0.060108 0 127 127
0.403905 0.107829 0.566181 0 255 0
-0.284047 -0.454900 0.554936 153 76 0
-0.032861 0.529495 0.247107 153 0 76
0.424793 0.546867 -0.397221 0 127 127
0.424793 -0.378708 -0.452944 0 127 127
-0.453083 -0.568749 -0.390412 127 0 127
-0.453083 -0.261098 0.035110 127 0 127
0.330379 -0.499267 -0.068991 153 0 76
0.056226 -0.348664 -0.470810 153 0 76
-0.453083 0.699468 0.484490 127 0 127
0.104693 0.151801 0.533261 0 255 0
-0.161203 -0.529444 0.241449 76 0 153
0.424793 -0.010643 0.243725 0 127 127
-0.431136 -0.395644 -0.021376 127 0 127
0.361696 0.125618 0.238451 127 127 0
0.147397 -0.359961 0.500340 153 76 0
0.424793 0.250450 0.337107 0 127 127
-0.453083 -0.175683 -0.458161 127 0 127
0.038066 -0.167928 -0.470810 153 0 76
0.446740 -0.674194 -0.393548 0 127 127
-0.398216 0.601956 0.507413 153 0 76
0.417240 0.390366 -0.487270 153 0 76
-0.335118 0.611433 0.026102 0 127 127
0.424793 -0.501703 0.464825 0 127 127
-0.273232 0.521264 0.083669 153 0 76
0.078436 0.529495 -0.157325 153 0 76
0.446740 -0.156358 0.262204 0 127 127
0.328775 -0.359860 0.109077 153 0 76
-0.368686 0.699583 -0.299832 0 255 0
0.337563 -0.272117 -0.470810 153 0 76
-0.431136 -0.016799 -0.157688 127 0 127
0.446740 -0.688563 -0.029778 0 127 127
0.072575 -0.163080 0.500340 153 76 0
-0.307830 0.018501 0.566181 0 255 0
-0.331169 0.528174 -0.470810 153 0 76
0.424793 -0.455198 0.127451 0 127 127
0.308195 0.013742 0.042555 76 153 0
0.446740 0.481907 0.119969 0 127 127
0.328775 -0.210743 -0.247104 153 0 76
-0.000557 0.430482 0.533261 127 127 0
0.311365 0.013742 -0.270737 76 153 0
-0.231667 -0.143675 -0.470810 153 0 76
0.361696 0.219608 -0.098202 127 127 0
0.446740 -0.248822 -0.499772 0 127 127
-0.368039 -0.012771 0.375432 127 0 127
0.085722 -0.477320 0.265537 0 0 255
0.424793 -0.353302 -0.021632 0 127 127
0.328775 0.129350 0.467397 127 127 0
0.361696 0.301565 -0.198849 127 127 0
-0.335118 -0.292173 -0.276366 76 0 153
0.424793 0.236924 0.003053 0 127 127
0.328775 -0.383006 0.015189 153 0 76
-0.453083 0.140407 -0.081856 127 0 127
-0.177982 -0.285388 0.533261 153 76 0
-0.317935 -0.338729 -0.470810 153 0 76
-0.453083 -0.675632 0.117825 153 0 76
0.209733 0.022577 -0.487270 153 0 76
0.250336 0.521264 0.280526 153 0 76
-0.152193 -0.173370 0.500340 153 76 0
0.295283 -0.257174 0.565721 153 76 0
-0.313758 0.541747 0.533261 127 127 0
-0.431136 0.064553 0.472390 127 0 127
0.353640 0.666663 0.505099 255 0 0
-0.206313 -0.320247 -0.470810 153 0 76
-0.015231 0.529495 -0.126582 153 0 76
0.314861 -0.337246 -0.311695 204 51 127
-0.239001 0.519558 0.533261 127 127 0
0.424793 0.047068 0.333646 0 127 127
-0.368039 0.630401 -0.118574 0 127 127
0.446740 -0.414262 0.194527 0 127 127
-0.100132 -0.169385 -0.470810 153 0 76
0.135059 -0.419088 -0.344616 204 51 127
-0.363276 -0.103862 0.566181 153 76 0
-0.453083 0.019942 -0.114146 127 0 127
-0.301536 0.433441 0.565179 127 127 0
0.198326 -0.503751 -0.487270 153 0 76
-0.368039 0.624348 -0.047656 0 127 127
-0.431136 0.135941 0.487402 153 0 76
-0.023222 -0.747868 0.396093 76 153 0
-0.453083 -0.467615 -0.384376 127 0 127
0.038860 -0.529444 -0.433581 76 0 153
-0.036850 -0.529444 0.398018 76 0 153
0.300689 0.677636 0.433118 255 0 0
0.149087 -0.166709 0.500340 153 76 0
0.015523 -0.148116 -0.344498 204 51 127
-0.453083 -0.712286 0.160203 153 0 76
-0.335118 -0.497338 0.079062 76 0 153
-0.069898 -0.036620 0.566181 0 255 0
0.361696 0.292672 0.312726 127 127 0
0.228199 0.529300 0.564669 127 127 0
0.446740 -0.388313 0.247295 0 127 127
0.361696 -0.286682 0.013030 153 0 76
-0.010720 -0.439301 0.500340 153 76 0
0.355111 0.630999 0.130197 127 0 127
-0.086932 -0.343342 -0.344616 204 51 127
0.290571 -0.477320 -0.193028 0 0 255
0.328775 0.600978 0.004722 127 0 127
0.136884 -0.047233 -0.487270 153 0 76
0.143895 -0.035638 0.501313 153 76 0
0.127300 0.582865 0.566181 127 127 0
-0.368039 0.270164 0.297880 127 0 127
0.328775 0.332618 0.148775 127 127 0
-0.431136 -0.110323 0.145086 127 0 127
0.446740 -0.437976 -0.502066 0 127 127
-0.053888 0.101902 0.533261 0 255 0
0.259722 -0.469090 -0.075485 0 0 255
-0.101146 -0.477320 -0.073114 0 0 255
0.188847 0.630999 0.503062 127 127 0
-0.021102 0.005512 0.134355 76 153 0
-0.453083 -0.773286 0.017175 153 0 76
0.098733 0.220788 0.533261 0 255 0
-0.156227 0.485644 0.563359 127 127 0
0.424793 -0.476058 -0.420985 0 127 127
0.186120 -0.529444 -0.142796 76 0 153
-0.251487 -0.238531 0.566181 153 76 0
0.020605 0.721826 -0.520191 153 76 0
0.446740 -0.198731 -0.116155 0 127 127
-0.329174 -0.477320 0.262553 76 0 153
0.195516 -0.278601 0.533261 153 76 0
-0.431136 -0.290051 -0.208967 127 0 127
0.446740 -0.616806 -0.409837 0 127 127
-0.453083 0.623763 -0.058230 127 0 127
-0.368039 -0.299060 0.519261 76 0 153
-0.050625 0.521264 -0.028078 153 0 76
-0.335118 0.530703 0.350137 0 127 127
0.261103 -0.067185 0.500340 153 76 0
-0.335118 0.260922 -0.155450 127 0 127
-0.453083 0.510996 0.002612 127 0 127
-0.064437 -0.529444 -0.251429 76 0 153
0.161590 -0.529444 0.439038 76 0 153
0.004608 0.026577 -0.470810 153 0 76
0.442662 0.285418 0.560870 0 255 0
0.197097 0.013742 0.356518 76 153 0
-0.350200 -0.124611 -0.470810 153 0 76
-0.335118 -0.002879 -0.027681 127 0 127
-0.453083 -0.231306 -0.254740 127 0 127
0.156415 0.499650 -0.311695 76 153 0
-0.225160 -0.148116 -0.312701 204 51 127
0.424793 0.514805 0.486582 0 127 127
-0.368039 0.252429 -0.164232 127 0 127
-0.453083 0.691188 0.353890 127 0 127
0.404814 -0.514892 -0.487270 153 0 76
-0.453083 -0.101791 -0.386589 127 0 127
-0.368039 0.588624 -0.295232 0 127 127
-0.362122 0.524165 0.559838 127 127 0
-0.238403 -0.162867 0.566181 153 76 0
0.353873 -0.529444 0.201374 76 0 153
0.361696 -0.300701 0.188533 153 0 76
0.328775 0.186815 0.437416 127 127 0
0.144924 0.709478 -0.520191 153 76 0
0.424793 0.046486 -0.292014 0 127 127
0.043923 0.171051 -0.470810 153 0 76
-0.431136 0.539814 0.457451 127 0 127
0.334231 -0.066015 -0.487270 153 0 76
0.424793 0.700624 0.275064 255 0 0
0.446740 0.467282 0.353081 0 127 127
-0.212086 0.484699 -0.470810 153 0 76
0.288541 0.298632 -0.311695 0 127 127
0.007193 -0.477320 -0.212088 0 0 255
0.293345 0.699583 -0.304410 255 0 0
0.385010 0.677636 0.201257 255 0 0
-0.120226 0.282615 -0.487270 153 0 76
0.176131 -0.346502 0.533261 153 76 0
0.027194 0.643465 -0.470810 153 0 76
0.045449 -0.280390 0.566181 153 76 0
0.003984 -0.669074 -0.520191 127 0 127
-0.368039 0.013165 -0.312070 127 0 127
-0.205241 0.360956 0.566181 0 255 0
0.007974 -0.529444 -0.266467 76 0 153
0.168560 0.202828 0.533261 0 255 0
-0.431136 0.640000 0.187093 127 0 127
0.446740 0.102339 -0.166647 0 127 127
0.328775 -0.216627 0.143221 153 0 76
0.457714 0.631420 0.529205 204 51 127
-0.120377 -0.529444 -0.418631 76 0 153
0.045504 -0.024502 -0.470810 153 0 76
-0.174608 -0.529444 0.316326 76 0 153
-0.319657 -0.627260 0.396093 76 153 0
0.446740 -0.149630 0.339301 0 127 127
0.424793 -0.137122 -0.194999 0 127 127
0.424793 -0.555633 -0.356285 0 127 127
-0.368039 -0.465188 0.261030 76 0 153
0.446740 -0.219963 0.336189 0 127 127
-0.368039 -0.317481 0.257844 76 0 153
0.361696 -0.282068 0.315733 153 0 76
0.328775 -0.302821 -0.018749 153 0 76
0.446740 0.310088 0.281331 0 127 127
0.361696 0.008669 0.506362 127 127 0
-0.453083 0.161167 0.271722 127 0 127
-0.453083 0.392264 -0.164619 127 0 127
0.284851 0.521264 0.172064 153 0 76
0.424793 0.285819 0.438104 0 127 127
-0.100775 0.153933 -0.487270 153 0 76
0.196560 0.013742 0.288510 76 153 0
-0.453083 0.595703 0.249106 127 0 127
0.446740 0.423279 0.032720 0 127 127
0.223353 -0.264094 -0.344616 204 51 127
0.032997 0.563804 -0.344616 76 153 0
-0.256683 -0.395161 0.533261 153 76 0
0.062267 -0.531302 0.566181 153 76 0
-0.431136 -0.570611 -0.331880 127 0 127
-0.409470 -0.244407 0.533261 153 76 0
0.130411 -0.776385 -0.520191 127 0 127
-0.386611 -0.532164 0.566181 153 76 0
0.328775 -0.379966 -0.256903 153 0 76
-0.431136 0.286991 0.022513 127 0 127
0.361498 -0.178899 0.564045 153 76 0
-0.431136 0.181712 -0.109292 127 0 127
-0.431136 -0.388492 0.456700 127 0 127
-0.368039 0.579017 0.171315 0 127 127
-0.096822 -0.529444 0.014080 76 0 153
-0.103664 0.235133 0.533261 0 255 0
0.424793 0.059996 0.219810 0 127 127
-0.335118 0.599789 -0.157421 0 127 127
0.304470 0.320521 0.533261 0 255 0
0.446740 -0.099965 -0.173079 0 127 127
0.024857 -0.529444 -0.032105 76 0 153
0.403357 0.182006 0.533261 204 51 127
0.181705 0.711993 0.566181 127 127 0
-0.431136 -0.579487 -0.268496 127 0 127
0.446740 0.486883 -0.365631 0 127 127
0.191204 0.529495 0.380433 153 0 76
0.424793 0.292064 -0.500145 0 127 127
-0.392960 0.699583 0.335870 0 255 0
-0.155747 0.210284 -0.311695 0 127 127
0.264094 -0.529444 0.142182 76 0 153
0.446740 0.207314 -0.225537 0 127 127
0.328775 0.182074 -0.197685 127 127 0
-0.307408 0.230358 -0.344616 0 127 127
0.186122 0.364613 0.566181 0 255 0
0.446740 -0.425319 0.464271 0 127 127
0.237976 -0.429643 -0.344616 204 51 127
0.306256 0.699583 -0.031202 255 0 0
0.424793 0.363275 0.179647 0 127 127
-0.194369 0.661207 0.563388 127 127 0
-0.431136 0.075392 0.190256 127 0 127
-0.431136 -0.240616 0.312972 127 0 127
0.287739 -0.220824 0.533261 153 76 0
0.361696 -0.398743 0.086422 153 0 76
0.436998 -0.165804 0.566181 153 76 0
-0.431136 -0.200331 0.257330 127 0 127
-0.189680 0.088922 0.533261 0 255 0
-0.398633 0.350657 -0.487270 153 0 76
0.328775 0.526455 -0.012919 127 0 127
0.361696 -0.387357 -0.010353 153 0 76
-0.097716 -0.216183 0.556310 153 76 0
0.328775 0.309061 -0.037775 127 127 0
0.123778 -0.420644 0.500340 153 76 0
0.361696 0.532409 0.150238 127 0 127
-0.350926 0.630999 0.291681 0 127 127
0.058755 0.529495 -0.034741 153 0 76
-0.368039 0.600259 0.219847 0 127 127
0.424793 -0.236119 -0.176980 0 127 127
0.446740 -0.309881 0.344168 0 127 127
0.424793 -0.344769 0.106746 0 127 127
0.149286 0.157223 -0.487270 153 0 76
-0.382138 0.677636 0.211493 0 255 0
-0.453083 -0.498130 0.100213 127 0 127
0.321793 -0.477320 -0.203662 153 0 76
-0.335118 -0.318922 -0.127721 76 0 153
-0.431136 -0.233171 0.421890 127 0 127
0.328775 0.150834 0.299582 127 127 0
0.064148 -0.555796 0.533261 153 76 0
-0.335118 0.559201 0.401472 0 127 127
